# .PCD v0.7 - Point Cloud Data file format
VERSION 0.7
FIELDS x y z rgb
SIZE 4 4 4 4
TYPE F F F U
COUNT 1 1 1 1
WIDTH 937
HEIGHT 1
VIEWPOINT 0 0 0 1 0 0 0
POINTS 937
DATA ascii
-0.0026792369 0.00095159106 0.0029563995 4289014885
-0.0023673966 0.0007974389 0.0026581297 4290262868
-0.0021827635 0.00074815575 0.0024681427 4292235067
-0.0018199878 0.00062177517 0.0020725839 4293091369
-0.0027115177 0.00093897077 0.0030660271 4288555619
-0.0016842687 0.00058739621 0.0019180285 4293619232
-0.0021204068 0.00073720235 0.0024320078 4291774527
-0.0026383256 0.00092056685 0.0030369216 4288621410
-0.001842705 0.00065152778 0.0021059485 4292169022
-0.0016226245 0.00057200436 0.0018677693 4294082066
-0.001550322 0.00055609376 0.0017974748 4292633122
-0.0025407074 0.00091799285 0.0029672496 4288555619
-0.0021756287 0.00077979523 0.0024953447 4290985039
-0.0020761997 0.0007570259 0.0023984979 4292563772
-0.0024421581 0.00089927838 0.0028212655 4289015136
-0.0015377884 0.00055919576 0.0017894264 4294281740
-0.0018434708 0.00068201672 0.0021608451 4293553697
-0.0020133639 0.00074406923 0.0023343349 4291577158
-0.0016522532 0.00062110252 0.0019296389 4293686555
-0.0023964909 0.00088987348 0.0028194012 4289671517
-0.0019978078 0.0007519424 0.002359035 4292037693
-0.001522682 0.00058087503 0.0018046602 4294017298
-0.002524137 0.00097009755 0.0030138951 4288555619
-0.00015922039 0.00067149475 0.0022152404 4292957750
-0.00014605161 0.00063731615 0.0021243871 4293484334
-0.00015851749 0.00067542237 0.0022054608 4292957750
-0.00017168537 0.00071535574 0.0022891383 4292628284
-0.00015733941 0.00069776614 0.0021890702 4293023795
-0.0026195 0.0009297884 0.0028608874 4289802590
-0.0024768622 0.00088217016 0.0027143697 4290788431
-0.0019536577 0.0007006221 0.0021557603 4292565293
-0.0025063481 0.00091611344 0.0027656255 4290065498
-0.0026757184 0.00097552239 0.0029730205 4288949603
-0.0026793003 0.00098956737 0.0029873732 4289015136
-0.0026727996 0.00099996349 0.002990545 4289211744
-0.0025533182 0.00095749431 0.0028370202 4289802590
-0.0027419964 0.0010390723 0.0030787329 4289211744
-0.0017891241 0.00069053913 0.0020088411 4292762919
-0.0027532629 0.00105671 0.0031022679 4289211744
-0.0026440104 0.0010277072 0.0029896935 4289540443
-0.0026279939 0.0010344231 0.0029821207 4290525772
-0.0025561184 0.00096667756 0.0029743924 4288883556
-0.0017937354 0.00068332779 0.0021025471 4293157413
-0.0014764643 0.00057206181 0.0017434265 4294019853
-0.001459942 0.00056443847 0.0017367338 4294548490
-0.0023880496 0.00093407108 0.0028198373 4289934169
-0.0015329442 0.00060182257 0.0018168228 4293488413
-0.001652572 0.0006412965 0.0019732201 4293224738
-0.0020065103 0.00079204357 0.002413847 4292169528
-0.001502739 0.00059997413 0.0017943152 4294282508
-0.0014751174 0.00059004698 0.0017812739 4294018575
-0.0024115753 0.0009682161 0.0028687883 4289015136
-0.0016989827 0.00068722892 0.0020362339 4293684765
-0.0019023163 0.0007795206 0.0022885008 4291642692
-0.0023361854 0.0009697373 0.0028210541 4290065498
-0.0024471907 0.00097331451 0.0029662917 4288490085
-0.0014459618 0.00058828096 0.0017593451 4293028384
-0.0023789997 0.00097157632 0.0029056487 4289146210
-0.0014344142 0.00058903696 0.0017452948 4294681353
-0.0020929272 0.0008660389 0.0025660412 4291051852
-0.0016077894 0.00066991232 0.0019488358 4293618464
-0.0016384248 0.00069414184 0.0020011296 4294540823
-0.0015782468 0.00066164962 0.0019424576 4293884185
-0.0024489323 0.0010346265 0.0030374355 4288424547
-0.0014203954 0.00060325675 0.0017549287 4294547722
-0.0018590525 0.00079261931 0.0023058015 4292366396
-0.0020935098 0.00090773276 0.0026168872 4290394197
-0.0023676245 0.0010346706 0.0029828341 4288555619
-0.00015678574 0.00071576098 0.0021813668 4293023795
-0.0001570562 0.00072382425 0.0021851298 4293023795
-0.00015729564 0.00073860562 0.0021884611 4293154869
-0.0021106456 0.00083530851 0.0023865958 4291840061
-0.0022299406 0.00088880199 0.0025394342 4291775288
-0.0024570893 0.00099682633 0.0027981088 4290590550
-0.0025453574 0.0010309154 0.0029194064 4288949603
-0.0016757172 0.00069070782 0.0019219696 4293226007
-0.0023147871 0.00096101267 0.0026741223 4291051339
-0.0025310882 0.00105462 0.0029345949 4288883556
-0.0024646253 0.0010247187 0.0028268103 4289474654
-0.0020723352 0.00087531842 0.0023940334 4291643203
-0.002499084 0.0010645918 0.0028870285 4289211744
-0.00182875 0.0007686051 0.00212029 4292564782
-0.0024465839 0.0010447091 0.0028573242 4289868635
-0.0023782202 0.0010167754 0.0027573567 4290591061
-0.0021205654 0.00091658143 0.0024856445 4291314249
-0.0016939385 0.00074109808 0.0019928687 4292959022
-0.0023966501 0.0010563014 0.0028404742 4289014625
-0.0024252778 0.0010328179 0.0029509084 4289146210
-0.0019241886 0.00082255399 0.0023501541 4291708737
-0.0024029256 0.0010495537 0.0029461158 4288817762
-0.0014597562 0.00063443248 0.001796623 4293756170
-0.0017423828 0.00075638323 0.0021610949 4293549875
-0.0014913806 0.00065643783 0.0018426325 4293425677
-0.001690157 0.00075336453 0.0020963186 4292827180
-0.002187008 0.00098713208 0.0027231229 4290394197
-0.0014894631 0.00065419561 0.0018691303 4293489683
-0.0020068411 0.00089633616 0.0025382971 4291510096
-0.0017828416 0.00079703506 0.0022372915 4292628796
-0.0018729968 0.00085136219 0.0023690078 4292167238
-0.0019474877 0.00087327819 0.0024730002 4290853965
-0.0019666669 0.00088893343 0.0025173335 4290000210
-0.0013580237 0.00061679166 0.001731345 4293694733
-0.0016150387 0.00074291776 0.0020672495 4293682728
-0.0016854353 0.00077331741 0.0021150562 4291842095
-0.0014144228 0.00065152545 0.00178195 4293428999
-0.0024504364 0.0011339274 0.0030750574 4288293222
-0.0018968945 0.00088471762 0.0023992341 4291576647
-0.0016206263 0.00074897468 0.002066137 4294076712
-0.0015322926 0.00071383908 0.0019692113 4294276891
-0.0020105657 0.0009532164 0.002563271 4291379533
-0.0015071789 0.00071741716 0.001929189 4293554458
-0.0023395051 0.0010848511 0.0030187161 4288490085
-0.0016103294 0.00076278759 0.0020862566 4292893487
-0.0021825731 0.0010380531 0.0028391194 4289146721
-0.0013605958 0.00065000122 0.0017627152 4294746120
-0.0016483223 0.00079388579 0.0021529107 4292431931
-0.0016777751 0.00082162645 0.0022094157 4292234556
-0.0023096194 0.001135722 0.0030540423 4288752740
-0.00015755862 0.00079464354 0.0021921201 4293154869
-0.00016960576 0.00083389506 0.0022614102 4292825148
0.0016382741 0.00087079435 0.0023614762 4292036931
0.0017257022 0.00087435578 0.0024543321 4292364612
0.0017740376 0.00089874153 0.0025008461 4292300351
0.0016663305 0.00084047375 0.0023387095 4293155891
0.0018830389 0.00096225773 0.0026545043 4291510351
0.0018533997 0.00095108664 0.0026012626 4291379028
0.0013061598 0.00066443777 0.0018172658 4293557263
0.0015995564 0.00083121052 0.0022351879 4291774023
0.0013106014 0.00067809375 0.0018234453 4293556495
0.0016399712 0.00081649626 0.0022331523 4293811513
0.0013138723 0.00067103346 0.0018044597 4293953289
0.0016347052 0.00082778686 0.0022259816 4292430660
0.0016049122 0.00079565571 0.0021761523 4293483063
0.0016791516 0.00082546519 0.0022576826 4293154620
0.0016294203 0.00082161452 0.0022093835 4292365885
0.0017916579 0.00089208072 0.0023988725 4292627273
0.0016084739 0.000797535 0.0021446319 4293483576
0.0016870804 0.00081280386 0.0021856911 4293220665
0.0018753258 0.0008811772 0.0024100572 4293284927
0.001840241 0.00086123281 0.0023555085 4293482814
0.0016575709 0.00079536671 0.0021388012 4292891704
0.0016361086 0.00077568495 0.0020858755 4293946404
0.0013734131 0.00064855616 0.0017440167 4294548489
0.0014027846 0.000622858 0.0017331701 4294615819
0.0013940835 0.00061661389 0.0017157951 4294814223
0.0022254258 0.0010053082 0.0027495609 4289934169
0.0014634692 0.00067501102 0.0018151556 4294742792
0.0024701606 0.0011073134 0.0030285495 4288555619
0.0017672619 0.00078619632 0.0021502806 4292433204
0.0028725807 0.0012987147 0.0035219379 4286455405
0.0028799125 0.001292128 0.003504076 4286849387
0.0014717474 0.00065225165 0.0017839362 4293819929
0.001400359 0.00061594736 0.0016846424 4294750230
0.00246293 0.0010967009 0.0029741041 4289672022
0.0019235617 0.00085330929 0.0023140591 4292761909
0.0020059817 0.0008907158 0.0023952022 4292169533
0.0014118629 0.00062226545 0.0016733189 4294814230
-0.0020834182 0.00091578823 0.0024421019 4292562750
-0.0020929428 0.00093105173 0.0024622856 4291905352
-0.0021222341 0.00095461088 0.0025245906 4292235067
-0.001971625 0.000887595 0.0023281181 4291576647
-0.0015772358 0.00072118954 0.0018762655 4294015764
-0.0024793209 0.0011193949 0.0029603832 4289146210
-0.0015848266 0.00072145095 0.0018923304 4293291292
-0.0019665267 0.00090933387 0.0023657465 4291248965
-0.0022105353 0.0010189828 0.0026296331 4290525776
-0.0017105235 0.00080080691 0.0020500657 4293355555
-0.001695609 0.00079341698 0.0020475278 4292631339
-0.0023840361 0.0011250507 0.0028572716 4289212255
-0.0017910075 0.000848372 0.0021545955 4292762158
-0.0015666416 0.00074178103 0.0018989594 4293751577
-0.0023883604 0.001139485 0.0029170816 4288686693
-0.0014913795 0.00071450119 0.0018146061 4294281740
-0.0017037492 0.00082902738 0.0020888878 4292169528
-0.0024458808 0.0011947186 0.0030103147 4288818273
-0.0023771166 0.00113647 0.0030305868 4288358756
-0.0016069731 0.0007744449 0.0020651864 4291972663
-0.0016350966 0.00080099871 0.0021183437 4292300602
-0.0013903874 0.00068388972 0.001808634 4294016531
-0.0023343484 0.001152998 0.0030242568 4288358756
-0.0017130042 0.00085300615 0.0022373933 4291577669
-0.0013448097 0.00066410354 0.0017709428 4294747404
-0.0016166333 0.00080496259 0.002146567 4292102977
-0.001430443 0.00071522151 0.0018759909 4293949208
-0.0014959817 0.00076035428 0.0019781576 4293816095
-0.0023134924 0.0011805475 0.0030465743 4288292711
-0.0021640304 0.0011134431 0.0028734014 4290262868
-0.0020653675 0.0010456464 0.0027653456 4291839555
-0.0023029998 0.0011708529 0.0030964704 4288686693
-0.0012836671 0.00065526098 0.0017187174 4294814224
-0.0019325558 0.00099481782 0.0026093582 4291379783
-0.0018464129 0.0009664204 0.0025142645 4291379783
-0.0021741795 0.0011428379 0.0029732368 4288555619
-0.0015283136 0.00078962871 0.0020377515 4293749539
-0.0014848292 0.00077984732 0.0019964091 4293684005
-0.0023328674 0.0012298798 0.0031235043 4288161638
-0.0019792547 0.001052262 0.0026724113 4289737817
-0.0012253344 0.00064655946 0.0016685405 4294748945
-0.0017935907 0.00095452898 0.0024633007 4291380295
-0.0014734722 0.00078668428 0.0019979284 4293683239
-0.0014919995 0.00080976047 0.0020403413 4293354028
-0.0016028685 0.00086735311 0.0022204239 4291642692
-0.0021520688 0.0011696026 0.0029941825 4288490085
-0.0012188705 0.00066483842 0.0016884785 4294487057
-0.0017073501 0.00093941542 0.0023858168 4291379783
-0.0013201687 0.00073535717 0.0018528685 4294018575
-0.0022480327 0.001263275 0.0031830552 4288030566
-0.00016993083 0.00087089546 0.0022657444 4292628796
-0.00015668904 0.00084475829 0.0021800215 4293155380
-0.00016899314 0.00089425535 0.0022532418 4292825659
0.0017950417 0.00097399129 0.0025758448 4291510601
0.0016510229 0.00091065391 0.002369181 4292365885
0.0015087473 0.00083894469 0.0021650186 4293090097
0.0019332692 0.0010443106 0.0027618131 4290656595
0.0018182099 0.000998392 0.0025974428 4291314249
0.0020609822 0.001121685 0.002918205 4289737306
0.0019692564 0.0010405241 0.0027517993 4290722642
0.001325417 0.00069728459 0.0018440584 4293489684
0.0020734111 0.0011136662 0.0028973429 4289803101
0.0013749128 0.0007293016 0.0019129221 4293423128
0.002003242 0.001104009 0.0028490555 4291314249
0.0018569613 0.0010225557 0.0026177429 4291248715
0.0014469398 0.00080314715 0.0020397389 4293353006
0.0021287729 0.0011526981 0.0029747046 4290262875
0.0015247336 0.0008220303 0.0021213684 4293222698
0.0015094312 0.00083415938 0.0021184999 4293024562
0.0013238534 0.00068749476 0.0018181679 4294150154
0.0020154766 0.0010421908 0.0027562073 4290788176
0.0013964029 0.00073715689 0.0019178066 4293554968
0.0022160998 0.0011554024 0.0030305637 4289474654
0.001715916 0.0008724996 0.0023266657 4291379783
0.0018401177 0.00093160768 0.0024637559 4291707726
0.0019276354 0.00099204667 0.0025809344 4290984789
0.001553294 0.00082664576 0.0021332793 4293288743
0.0022712382 0.0012035621 0.0031059668 4288293222
0.0015846819 0.00085695239 0.002176387 4292695601
0.0021789742 0.0011732938 0.0029797938 4289606238
0.0022091786 0.0011554281 0.0029578961 4290328152
0.002195498 0.0011814756 0.0029769465 4289212255
0.002067735 0.0010901031 0.0027685156 4290657108
0.0016937712 0.000853943 0.0022583616 4293352756
0.0016516481 0.00084646966 0.0022021974 4293681455
0.0018523298 0.00090741663 0.0023997796 4292036170
0.0013786552 0.00069214118 0.0018006925 4294348552
0.0021955413 0.0010933263 0.0028444261 4289934431
0.0015227798 0.00079311448 0.0020303731 4293946404
0.0014865554 0.00078044168 0.001982074 4293816862
0.0013740211 0.00070103112 0.0017946397 4294546439
0.0015279239 0.00077638408 0.0019875432 4293617193
0.0013674852 0.00070885965 0.001786103 4294678023
0.0014682865 0.00075801776 0.0019099661 4293222698
0.0018867506 0.00092055165 0.0024345168 4291445067
0.0018480886 0.00089091121 0.0023561288 4292826170
0.0021114792 0.0010387116 0.0027244894 4289868635
0.0017714672 0.0008680895 0.0022584442 4292431419
0.0013739581 0.00065971795 0.0017447086 4294548489
0.0014020561 0.00068433688 0.0017803886 4294810120
0.0025675788 0.0012837894 0.003313005 4287242857
0.0017671523 0.00088005594 0.0022529433 4292365885
0.0018354037 0.00092867046 0.002339957 4292234556
0.001405162 0.00069142896 0.0017843328 4294678790
0.001404403 0.00070777454 0.0017833689 4294875655
0.0013682421 0.00064419175 0.0017036477 4294812939
0.0016504091 0.000774029 0.0020470188 4292828204
0.001411962 0.00067576388 0.0017580849 4294746120
0.0021549491 0.0010190069 0.0026728052 4291118403
0.0014100872 0.00068584009 0.0017557506 4294612489
0.002625545 0.0012618898 0.00325649 4287571305
0.0014170584 0.00070025848 0.0017644308 4294283785
0.0028261081 0.0013801923 0.0035052504 4286520939
0.0027855739 0.0012519433 0.0033385155 4287242857
0.0020375804 0.00090895779 0.0024238874 4289475158
0.0017070158 0.00075867365 0.0020231297 4292761398
0.0028242576 0.001271437 0.0033349167 4287571305
0.0018884318 0.00084007438 0.0022216844 4293157165
0.0014534851 0.00064186752 0.0016975008 4294486291
0.0021062104 0.00094123685 0.0024688181 4291248965
0.0020259882 0.00090616924 0.0023575134 4293157163
0.0015806736 0.00070443063 0.0018326651 4294481421
0.0014516071 0.0006399558 0.0016649256 4294425635
0.0027803909 0.0012537035 0.0032353639 4289343580
0.0019243404 0.00086455874 0.0022311194 4292959022
0.0015276867 0.00068690948 0.0017584882 4294349070
0.0023169692 0.0010539283 0.0026766432 4289409113
0.0016453399 0.00074572954 0.0018939163 4292828202
0.0015148608 0.00067387044 0.0017251084 4294555679
0.0017305448 0.00078492565 0.0019777655 4294083094
0.0015790664 0.00071113982 0.0017918483 4294813457
0.0015026538 0.00066960364 0.0016871903 4294360100
0.0015055321 0.00066854048 0.0016845114 4294295851
-0.0024072966 0.0011627696 0.0029069241 4288949603
-0.0014629556 0.0007120088 0.0017800221 4294082066
-0.0015107539 0.00074384443 0.0018451955 4293421600
-0.0017505737 0.00087193336 0.0021462974 4292366136
-0.0015381812 0.00075725844 0.0018931461 4293751577
-0.0022136178 0.0011068089 0.0027455725 4291445829
-0.001633215 0.00082606624 0.0020178717 4293948441
-0.0015833871 0.00080093509 0.0019715326 4293157925
-0.0023693449 0.0012075426 0.002927376 4289408607
-0.0018399609 0.00094137539 0.0022821222 4293089330
-0.0023417568 0.0012209938 0.0029158061 4288949603
-0.001466009 0.00075018423 0.0018325112 4294280462
-0.0022950089 0.0011836464 0.0028913498 4288686693
-0.0015131931 0.0007861511 0.0018914914 4294279185
-0.0015018472 0.00078950857 0.0018995695 4293553180
-0.0015857673 0.00083330506 0.0019899823 4293355555
-0.0018439343 0.00098004378 0.0023230668 4292300602
-0.0021938991 0.0011578912 0.0027859036 4289212255
-0.0014284204 0.00075955683 0.0018138671 4294084620
-0.0018990096 0.0010254652 0.0024307324 4292168511
-0.0022642915 0.0012333163 0.0030832905 4288161638
-0.0022608936 0.001242036 0.00310509 4289211744
-0.0016129112 0.0008898821 0.0022247052 4292893489
-0.0016260095 0.00091197918 0.002262274 4292959022
-0.0021165276 0.0012015223 0.0029575932 4289080670
-0.0012369466 0.00069748529 0.0017437132 4294617359
-0.0012792677 0.00072454102 0.0018113526 4293621780
-0.001413777 0.00080610096 0.0019842484 4293156652
-0.0014329918 0.00083062798 0.002029015 4293223209
-0.002087804 0.0012248449 0.0029693211 4289343580
-0.0013677233 0.00078766217 0.0019538905 4292961571
-0.0022668387 0.0013172172 0.0032675155 4287767912
-0.001236067 0.0007205772 0.0017737285 4294744842
-0.0018895635 0.0011065012 0.0027236952 4292170295
-0.0017817812 0.0010609697 0.0025916817 4291774527
-0.0022613429 0.0013588803 0.0033194022 4287374441
-0.0014931712 0.00087990443 0.0021331017 4293354028
-0.0015388634 0.0009219317 0.0022181815 4293287982
-0.0021512304 0.0012926676 0.0030869674 4287767912
-0.0020331615 0.0012327766 0.002943944 4289212255
-0.0012272955 0.00073973974 0.0017933084 4294284302
-0.0015984686 0.00096788007 0.002346376 4292301113
-0.0015014445 0.00091451622 0.0021839193 4293156142
-0.0014411845 0.00089247664 0.0021155002 4293090602
-0.0013398414 0.00082499487 0.0019849502 4292959022
-0.0021516739 0.0013372552 0.0032174562 4287571305
-0.0011340085 0.00070677744 0.0016878267 4294351888
-0.0012885835 0.00080687006 0.0019268539 4292762669
-0.0016055014 0.0010223712 0.0024233984 4292036931
-0.0020445106 0.0013143282 0.0031154444 4288161638
-0.00016890153 0.00090080814 0.0022520204 4292825659
0.0014959039 0.00082178414 0.0020544603 4293683237
0.0018586231 0.0010123564 0.002530891 4292168511
0.0014559885 0.00080544048 0.0019826225 4294013216
0.001603346 0.00087270729 0.0021648554 4293286960
0.0016526667 0.00088511023 0.0022127756 4292957750
0.0014801 0.00081186916 0.0019984471 4294144034
0.0014944221 0.00081628095 0.002009307 4294144034
0.001443947 0.00077010499 0.0019252625 4294146838
0.0013647471 0.00071858108 0.0017825267 4294678024
0.0019480825 0.0010215554 0.002534091 4291971646
0.0013655364 0.00073014398 0.0017835577 4294874377
0.0020340038 0.0010831484 0.0026458586 4291117635
0.0013750677 0.00074646535 0.0017960068 4294546439
0.0018720193 0.0010044982 0.0024351471 4291576135
0.0013758399 0.0007525002 0.0017970154 4294546439
0.003011582 0.0016338136 0.0039016446 4285733479
0.0017986847 0.00091725757 0.0022931439 4292234556
0.0018007522 0.00093983486 0.0022957798 4292234556
0.0014006696 0.00071145117 0.001778628 4294875655
0.0013997684 0.0007276574 0.0017774837 4294875655
0.0017681627 0.00092987047 0.0022542314 4292300602
0.0017318908 0.00093897694 0.0022257231 4292891193
0.0016909356 0.00090273051 0.0021557743 4293155374
0.0014011996 0.0007339617 0.0017793011 4294678790
0.0013950302 0.00074180175 0.0017714668 4294678790
0.0014290919 0.00071176566 0.0017794141 4294086921
0.002991816 0.0014843119 0.0037107796 4286258538
0.00146296 0.00074001873 0.0018215845 4294084620
0.0030084024 0.0015158617 0.0037313518 4286061675
0.0018916059 0.00097892457 0.0023553071 4293025074
0.0030491571 0.0015600338 0.0037819 4285864813
0.0022623616 0.0011884 0.0028169481 4292299597
0.0030636913 0.0015912196 0.0037999272 4285667950
0.0026393135 0.0012108678 0.0030271695 4289015392
0.0016820647 0.00076620735 0.0019155184 4293752089
0.0016450819 0.00074987824 0.0018601632 4293951763
0.0024445818 0.0011309453 0.0027838654 4288096359
0.0025394489 0.0011665314 0.0028714617 4289146721
0.0016268163 0.00073894125 0.0018330325 4294154768
0.0014854872 0.00067002751 0.0016620837 4294554395
0.0019202551 0.0008759058 0.0021560758 4292762669
0.0016915707 0.00076889573 0.0018926664 4294082583
0.0031175029 0.0014338341 0.0034759613 4286586730
0.0014824398 0.0006565823 0.0016414558 4294427693
0.0014654119 0.00064680248 0.0016170061 4294363445
0.0016846203 0.00076361676 0.0018653234 4294015771
0.001542239 0.0006966666 0.0017017809 4294614294
0.001496072 0.00066093594 0.001639531 4294034737
0.0015066131 0.00066106499 0.001639851 4294431038
0.0015068214 0.0006760055 0.0016513111 4294752800
0.0014719247 0.00064864481 0.0015966641 4294166324
0.0031900425 0.0014570436 0.0035322269 4287177575
0.0022786709 0.0010336239 0.0025057548 4291380800
0.001727305 0.00078083645 0.0018929369 4293751329
0.0026460651 0.0011970295 0.0028800708 4291052613
0.0034059077 0.0015576507 0.0037197629 4286389868
0.0033578253 0.0015252496 0.003642387 4287242852
0.0014937874 0.00065887591 0.0016094679 4294100790
0.0014718304 0.00064701273 0.0015804891 4294102849
0.0016029181 0.00072023011 0.0017328844 4294747930
0.0014821709 0.00066150579 0.0015915929 4294492970
0.0017668043 0.00079714396 0.0019036274 4293620261
0.0020003091 0.00090314948 0.0021407988 4292368181
0.0014767523 0.00064977107 0.0015752026 4294038338
0.0016669208 0.00075011438 0.0017780489 4294147868
0.0016126005 0.00072086451 0.0017087158 4294945049
0.0015149893 0.00065633084 0.0015791419 4293843277
0.0015694776 0.00069697195 0.0016520817 4294883619
0.0015575784 0.00068716693 0.0016288402 4294492970
0.0015502104 0.00067947537 0.0016106083 4294560564
0.0015217614 0.00065779366 0.0015708505 4293777743
-0.0024641156 0.0011179055 0.0025192236 4290262868
-0.0025553214 0.001171189 0.0026208425 4290066005
-0.0021845517 0.0011743044 0.0027630692 4290919505
-0.001584813 0.00086501741 0.0020204787 4293618464
-0.0015620195 0.0008531512 0.0020074146 4293354788
-0.0022932773 0.0012608457 0.0029237003 4289343073
-0.0017304968 0.00095523428 0.002215036 4292366647
-0.0022507443 0.0012654786 0.0028925226 4289146210
-0.0014099835 0.00077890221 0.0018193336 4294346508
-0.0022540379 0.0012552976 0.0029320819 4288883556
-0.001412328 0.00079158705 0.0018223587 4294082832
-0.0018615054 0.0010442592 0.0024214704 4292300602
-0.0020185565 0.0011499154 0.0026472872 4289671772
-0.0015928674 0.00090283982 0.0020636339 4293551907
-0.0018736065 0.0010738963 0.0024372116 4292431419
-0.0019446934 0.0011271284 0.0025400077 4291116368
-0.0019667076 0.0011330827 0.0025899031 4291050834
-0.0017482709 0.0010186207 0.0023117631 4292826932
-0.0014394308 0.00084707246 0.0018955467 4293223969
-0.001405842 0.0008283385 0.0018666782 4294213650
-0.0021874914 0.0012851512 0.0029166553 4289015136
-0.0014935114 0.00089360715 0.0019996804 4293751578
-0.0021074943 0.0012662675 0.0028336057 4290722642
-0.0021421299 0.0012979854 0.002904583 4289015136
-0.0018783904 0.00117724 0.0027699766 4288883807
-0.0012533634 0.00078915467 0.0018568346 4292368424
-0.0012797137 0.00082310225 0.0019225746 4293488413
-0.0022623725 0.0014657625 0.0033988697 4287767912
-0.0011313471 0.00072920951 0.0017157871 4294414610
-0.0017087288 0.0011066053 0.0026037772 4291445578
-0.0017696293 0.0011573879 0.0026837981 4291511624
-0.0017648696 0.0011737648 0.0027021924 4290459731
-0.0020456966 0.0013703231 0.003132167 4288358756
-0.0016437124 0.0010826375 0.0025287883 4292169022
-0.0018415162 0.0012246978 0.0028606078 4288555619
-0.0012623512 0.00084359047 0.0019420788 4293420328
-0.0012828925 0.00085941347 0.0019928429 4292630578
-0.0013869441 0.00094502571 0.0021755986 4293156654
-0.0018611643 0.0012807022 0.0029483791 4288817762
-0.0016722295 0.0011309765 0.0025850891 4290000216
-0.0014528922 0.0009874024 0.0022569199 4292826932
-0.0015486997 0.0010704247 0.0024293328 4292431931
-0.0013167367 0.00091258978 0.0020859195 4293419561
-0.001703017 0.001191273 0.0026845587 4289868124
-0.0014524446 0.0010210255 0.0023009023 4292235067
-0.0013041284 0.00091941049 0.0020866054 4293619232
-0.0018043934 0.0012849468 0.0029161912 4289212255
-0.0015753548 0.0011263787 0.0025205677 4291643203
-0.0014346679 0.001034126 0.002330425 4292234556
-0.0012346172 0.000905386 0.0020260385 4293354788
-0.0016594756 0.0012232218 0.0027372795 4290919505
-0.0017332295 0.0012908948 0.0028887158 4289015136
-0.00016867626 0.00095583207 0.0022490167 4292891193
-0.00015479726 0.00092878361 0.0021537011 4293286960
-0.00016791708 0.00097951642 0.0022388946 4292826170
0.0014544275 0.00079438603 0.0018691437 4294477327
0.0014586432 0.00079350191 0.0018670633 4294477326
0.0016480958 0.00087855692 0.0020521036 4293420328
0.0031082518 0.0016505059 0.0038551961 4285602157
0.0015101088 0.00081087556 0.0018802912 4294410514
0.0017229493 0.00092825561 0.0021369914 4293419051
0.0029069507 0.0015541005 0.0035777856 4287439975
0.0029188702 0.0015485609 0.0035650323 4286455405
0.0014704317 0.00079482794 0.0018167496 4294741258
0.0019093588 0.0010241772 0.0023409764 4291775038
0.0016573103 0.00088851992 0.0020164992 4293288232
0.0015024522 0.0008112099 0.0018280786 4294544904
0.0022808672 0.0012181905 0.0027646876 4290460238
0.0028548827 0.0015133026 0.0034344455 4286521196
0.0016226962 0.00086952018 0.0019594822 4293948441
0.0019328343 0.0010318138 0.0023252142 4291577663
0.0018625347 0.00099381513 0.0022239219 4291643709
0.0028937138 0.0015325967 0.0034295868 4286848876
0.0030700676 0.0013964188 0.0032856911 4286718060
0.0029793247 0.0013461399 0.0031673883 4288030566
0.0030941465 0.0013887918 0.0032677455 4289081439
0.0026311162 0.0011732189 0.0027605153 4291380806
0.0021660982 0.0009627103 0.0022652007 4293027374
0.0034366269 0.001544803 0.0035821518 4286652269
0.001870572 0.00082934753 0.001937162 4292370725
0.0018615194 0.00082002627 0.0019153898 4291455008
0.0033280267 0.0014863033 0.0034465003 4286914920
0.0032623522 0.001452273 0.0033675896 4287046245
0.0028199479 0.0012342903 0.0028830138 4289279820
0.0031087422 0.0013563621 0.003168145 4288293980
0.0032904749 0.0014554022 0.003374846 4286849127
0.0034228619 0.0015043151 0.0034882668 4286652269
-0.0026874125 0.0012443324 0.0027651833 4290065750
-0.0028956719 0.0013544272 0.0029890807 4289868885
-0.0022370601 0.0010642324 0.0023166966 4291248204
-0.0026307818 0.0012556004 0.0027332797 4289802840
-0.0022403686 0.0010873451 0.0023352378 4291051339
-0.0028692777 0.0013971319 0.0030005518 4289409113
-0.0022291422 0.0010891573 0.0023235357 4292036931
-0.0022392999 0.001097696 0.0023417515 4290985294
-0.0030257185 0.0015029062 0.0031849667 4288949596
-0.0021515964 0.0012750201 0.002833378 4289474654
-0.0014009471 0.00083708047 0.0018601788 4294083342
-0.001922581 0.0011615593 0.0025634412 4292169022
-0.001408047 0.00085552223 0.0019011606 4293488413
-0.0021234248 0.0012971548 0.0028430792 4290065498
-0.0017395588 0.0010671243 0.0023389026 4292431931
-0.0014090984 0.00086944376 0.0019187724 4293354788
-0.0018471495 0.0011446011 0.0025260162 4290196823
-0.0015272275 0.00095128157 0.0020708169 4292958510
-0.0014482895 0.0009075118 0.0019890671 4292366647
-0.0017500881 0.0011021831 0.0023830987 4290985039
-0.0013511147 0.00085455121 0.0018476783 4293553946
-0.0020307584 0.0013073551 0.0027890243 4289474654
-0.001841647 0.0011719571 0.0025511992 4292102977
-0.0020257004 0.0012946868 0.0028183658 4289803101
-0.0013172308 0.00084598007 0.0018168701 4293817623
-0.0016524302 0.0010679461 0.0023090728 4292366396
-0.0019156417 0.0012439232 0.0026537029 4291379533
-0.0014705262 0.00095903885 0.0020459495 4293816095
-0.0016130896 0.001058812 0.0022739589 4292826930
-0.0020261679 0.0013358364 0.0028689103 4290000216
-0.0015664201 0.0010374098 0.0021984843 4293486885
-0.0015775738 0.0010517159 0.0022436606 4292630067
-0.0017734393 0.0012008491 0.0025448457 4292431931
-0.0020023377 0.0013619505 0.0028862527 4289671772
-0.0017374891 0.0012572787 0.0027939526 4289408607
-0.0013354704 0.00097618141 0.002169292 4293551907
-0.0011973135 0.00089031004 0.0019648222 4292367158
-0.0010992979 0.00082020147 0.00182267 4294015764
-0.0017367607 0.001300344 0.002850069 4289015136
-0.0016021056 0.0012119554 0.0026563408 4291248204
-0.0013181443 0.00098860823 0.0021969071 4292234556
-0.0012525452 0.00095588976 0.0021095497 4293552418
-0.0012482657 0.00094920199 0.0020804428 4293683999
-0.0012916049 0.00099929434 0.0021753346 4292629556
-0.0016090982 0.0012410597 0.0027388905 4289343584
-0.0012904506 0.0010075176 0.0022082576 4292037693
-0.0012633778 0.0010038732 0.0021853021 4292959789
-0.0018009389 0.0013954919 0.0030172798 4289014625
-0.0016883553 0.0013220984 0.0028585913 4289343584
-0.001409234 0.001109397 0.0023986963 4291905602
-0.0011057114 0.0008905459 0.0019125819 4293881630
-0.0017137567 0.0013895324 0.0029643357 4289145955
-0.0016073321 0.0012841186 0.0027953603 4290393686
-0.0016944729 0.0013686127 0.002979293 4288818273
-0.0011554037 0.00093442481 0.0020203779 4293816095
-0.0015535136 0.0012632968 0.0027314525 4291248204
-0.001279439 0.0010487204 0.0022372704 4293091369
-0.0011409151 0.00095181318 0.0020170875 4291906617
-0.0011345635 0.00093916635 0.0020170016 4293552418
-0.0016767702 0.0014035886 0.0030144183 4289015136
-0.0010295352 0.0008636656 0.0018302848 4294015254
-0.0010316714 0.00087429781 0.0018651686 4293224738
-0.0017195304 0.0014557389 0.0031264191 4288358756
-0.00095518061 0.00082418445 0.001746616 4293953041
-0.0013685443 0.0011876448 0.0025168632 4291379783
-0.001674115 0.0014697171 0.0031146323 4288555619
-0.00016732114 0.0010108986 0.0022309485 4292891704
-0.00016636471 0.0010120521 0.0022181962 4292891704
-0.00016550245 0.0010412864 0.0022066995 4292957750
0.0015289708 0.0008246135 0.0018324744 4294742024
0.0015530927 0.00083139539 0.0018475453 4293687315
0.002028845 0.0010855444 0.0023956841 4290853965
0.001566475 0.00084393128 0.0018497123 4294082832
0.0015503848 0.00084670458 0.0018307127 4294675723
0.0015390215 0.00085185689 0.0018172947 4294742791
0.00308245 0.0016432179 0.0036264118 4286258798
0.0020532445 0.0011096579 0.0024155818 4291117386
0.0018633608 0.0010207382 0.0021921892 4293420328
0.0017594757 0.00097029906 0.0020699713 4293946404
-0.0022012526 0.0010970177 0.0023095109 4292036420
-0.0025464792 0.0012858459 0.0026893509 4290525776
-0.0029775251 0.0015084812 0.0031549935 4288752733
-0.0021327252 0.0010839592 0.0022523829 4291774021
-0.0026063465 0.0013290641 0.0027616916 4290525776
-0.0029251066 0.001511305 0.0031201136 4288752733
-0.0021047567 0.0010908373 0.0022376149 4291839555
-0.0022448741 0.0011673345 0.0023945323 4290525776
-0.0028668337 0.0015103788 0.0030784791 4288949596
-0.0021009054 0.0011101775 0.0022484607 4291774021
-0.0020826256 0.0011111996 0.0022363765 4291576647
-0.0019656625 0.0013047191 0.0027467771 4289671517
-0.0019181436 0.0012843957 0.002703991 4291116368
-0.0014848105 0.00099863356 0.0021023864 4293816096
-0.0019518115 0.0013359066 0.0027759096 4289868124
-0.0013204201 0.000901894 0.0018863142 4293949720
-0.0013752023 0.0009458405 0.0019912431 4291971648
-0.0015010528 0.0010366014 0.0021539771 4291905602
-0.0012392345 0.0008596491 0.0017862839 4293950996
-0.0011865173 0.00082516886 0.0017258434 4293884185
-0.0019921977 0.0013981938 0.0029243268 4289474654
-0.0012001679 0.00084557279 0.0017456987 4294149395
-0.0013897809 0.00098177185 0.0020400453 4293817373
-0.001900989 0.0013418745 0.0027525632 4289868124
-0.0015377667 0.0010953954 0.002246965 4292235067
-0.0016078856 0.001163309 0.0023710756 4292826932
-0.0018309299 0.0013331196 0.0026999889 4289671517
-0.0013157676 0.00094418507 0.0019492853 4293553186
-0.0019014938 0.0013772503 0.0028433553 4289408607
-0.0011981884 0.00086938322 0.0017833501 4294349836
-0.0013533972 0.00098658854 0.0020237714 4293091369
-0.0013649405 0.0010030725 0.0020315393 4293354028
-0.001338735 0.00099933741 0.0020112451 4293883674
-0.0015548031 0.0011514344 0.0023468726 4292103482
-0.001809079 0.0013525019 0.0027566918 4289408607
-0.00134419 0.0010065499 0.002038582 4294015004
-0.0014654703 0.0011148794 0.0022437824 4293946915
-0.0017145479 0.00131064 0.0026377661 4291248204
-0.0017776219 0.0013720479 0.0027613544 4289539936
-0.0016563671 0.0013909822 0.0029283836 4288686693
-0.001593427 0.0013530776 0.0028485844 4290262357
-0.0013440083 0.0011476924 0.0024161946 4292826930
-0.0013269511 0.0011535428 0.0024126384 4291643203
-0.00094676623 0.00083184085 0.001751244 4294349070
-0.0016550077 0.0014564068 0.0030262999 4289015136
-0.00099310966 0.00088403991 0.0018369659 4293884951
-0.0012273209 0.0010846092 0.0022833878 4292235067
-0.0010457665 0.00094118994 0.0019685018 4293553186
-0.0010581024 0.00095909869 0.0019800747 4293289511
-0.00090856617 0.00082839851 0.0017102421 4294482956
-0.0015260817 0.0013922148 0.0028558252 4288949603
-0.0011799128 0.0010891503 0.0022341546 4292235067
-0.0015518902 0.0014133286 0.0029559813 4288883556
-0.001201531 0.0011079987 0.0023023349 4291905602
-0.0011290577 0.00106063 0.0021896877 4292893487
-0.0014574484 0.0013774664 0.0028438016 4290065498
-0.0014811433 0.0014171433 0.0029257152 4288686693
-0.00091418356 0.00084888469 0.001741302 4294347792
-0.00097480195 0.00092195126 0.0018791363 4293949209
-0.0014826495 0.0014027462 0.0028410049 4288949603
-0.0014046846 0.001345092 0.0027242368 4290722642
-0.0010439664 0.00099913345 0.0020495045 4293815585
-0.00092579343 0.00090279226 0.0018400862 4293818134
-0.0011271903 0.0010859517 0.0021993958 4293288743
-0.0011338678 0.0011128702 0.0022397388 4292827442
-0.0013028741 0.0012784452 0.0026057481 4290788431
-0.0014740077 0.0014646787 0.0029853322 4288817762
-0.00090395688 0.00089827162 0.0018192843 4293554968
-0.0010240766 0.0010371222 0.0020872899 4293354788
-0.001317286 0.0013426184 0.0027021251 4290394197
-0.0014012607 0.0014467563 0.0029117106 4288555619
-0.00017741989 0.0011071 0.0022709745 4292628284
-0.00017791049 0.0011243944 0.0022772544 4292628284
-0.00016524286 0.0010671935 0.0022032382 4293089335
-0.00016535124 0.0010747832 0.0022046834 4293089335
-0.00016536312 0.0010955308 0.0022048417 4293154869
0.0015277982 0.00085692003 0.0018040423 4294678023
0.0015265573 0.00086749007 0.0018025768 4294743558
0.0015250792 0.00087790546 0.0018008316 4294743558
0.0015265592 0.00089002342 0.0018025792 4294678023
0.0016866492 0.00094253925 0.0019842931 4294012448
0.0017050632 0.00096536661 0.0020059566 4293816096
0.0017338523 0.00099441526 0.0020398262 4293816096
0.0016374709 0.00095719809 0.0019264364 4294013725
-0.0020841425 0.0011227704 0.0022455407 4291050828
-0.0026301355 0.0014216949 0.0028433898 4289540443
-0.0022113991 0.0012102928 0.0023907018 4290788176
-0.001885171 0.0014160909 0.0028321818 4289868124
-0.0016492496 0.0012447167 0.0024894334 4291905602
-0.0016301796 0.0012498044 0.0024840832 4292365885
-0.0018283876 0.0014172191 0.0027994451 4289671517
-0.0011913038 0.00092081458 0.001841629 4294081306
-0.0014438201 0.0011214137 0.0022428273 4291840068
-0.0011803042 0.00092371629 0.0018246248 4294018576
-0.0011776295 0.00093635905 0.0018382509 4293752855
-0.0013572617 0.0010711722 0.0021290379 4292760885
-0.0018121084 0.0014443042 0.0028706668 4289474654
-0.0010857933 0.00086757011 0.0017032051 4294614541
-0.0012008349 0.00096304575 0.0019023126 4293751327
-0.0018941071 0.0015152858 0.0029566551 4289146210
-0.0012013715 0.0009705663 0.0018937878 4292368430
-0.0010738561 0.00087184354 0.0017011581 4294282258
-0.0018404266 0.0015199543 0.0029300323 4288883556
-0.0012525286 0.0010259405 0.0020141164 4293091369
-0.0015613823 0.0012853805 0.0025234462 4291050828
-0.0016978586 0.0014119947 0.0027720141 4289408607
-0.00139539 0.0011511968 0.002232624 4293091119
-0.0011794323 0.00098186242 0.0019158291 4294081816
-0.0018309837 0.0015273533 0.0029442955 4289343073
-0.0011740377 0.00098929065 0.0019070663 4293092390
-0.0014763603 0.0012353219 0.0024103841 4292102977
-0.0012734178 0.0010830616 0.002100483 4293420839
-0.0016636837 0.0014247958 0.0027301477 4290788431
-0.0012706855 0.0010938374 0.0020959759 4293552420
-0.0016516347 0.0014193736 0.0027527243 4289868635
-0.0013172883 0.0011448683 0.0022069751 4292694841
-0.0012615329 0.0011146878 0.0021359287 4293749539
-0.0015777366 0.0014015001 0.0026855092 4290985294
-0.00169833 0.0015248447 0.0029218581 4289343073
-0.0014594269 0.0014325663 0.0028651326 4289211744
-0.0014010705 0.0013923682 0.0027847365 4290196823
-0.0010324506 0.0010324506 0.0020649012 4292959789
-0.00097394141 0.00099243398 0.0019725396 4293421601
-0.0014304641 0.0014574539 0.0028789213 4289343073
-0.0012044118 0.001242769 0.0024548522 4291313738
-0.0010104624 0.0010430579 0.0020861158 4293156142
-0.0010086062 0.0010613438 0.0021095031 4293090097
-0.00090347248 0.00093822146 0.0018532769 4293818134
-0.00089811906 0.00095060654 0.0018662214 4294017297
-0.0013261458 0.0014031478 0.0027378495 4289474654
-0.00092555198 0.00099209498 0.0019357951 4293421600
-0.00137439 0.0014911683 0.0028745411 4289146210
-0.0011587639 0.001227375 0.0024395031 4291182157
-0.0013416619 0.0014400504 0.002862212 4288817762
-0.00094445248 0.0010132536 0.0020014886 4293354277
-0.00097725482 0.0010554352 0.0020848103 4291972152
-0.0011218286 0.0012355273 0.0024255752 4292102465
-0.0014091951 0.0015732795 0.003088647 4288293222
-0.00096923637 0.0010521315 0.0020404975 4292828714
-0.00088802521 0.00097742374 0.0019071682 4294213652
-0.00093859353 0.0010318313 0.0019890724 4292829475
-0.00096696534 0.0010765546 0.0020628592 4292893737
-0.00087087869 0.00097751687 0.0018957905 4294146838
-0.00094518455 0.0010617141 0.0020716374 4293287721
-0.0010744972 0.0012206873 0.0023390416 4291839044
-0.00098688144 0.0011298091 0.0021779453 4293483823
-0.0010996511 0.0012688282 0.0024607577 4292169526
-0.0013370697 0.0015536372 0.0030131147 4289015136
-0.00092744984 0.0010831058 0.0020754123 4293615915
-0.00083886273 0.00098654989 0.001890395 4294410514
-0.0014222575 0.001676232 0.0032508743 4287177323
-0.00079865986 0.00094698241 0.0018255083 4293949209
-0.00078507047 0.00095698365 0.0018337412 4293949719
-0.0012043647 0.0014788891 0.0028337995 4290000216
-0.001540994 0.0019204926 0.0036799859 4286389868
-0.00023621522 0.0013276924 0.0026065127 4290262361
-0.00021773619 0.0012442068 0.0024884136 4291050834
-0.00017724663 0.0011343785 0.002268757 4292825148
-0.00021655826 0.0012606784 0.0024749513 4290919505
-0.00017682477 0.0011458246 0.0022633572 4292628796
-0.00024056455 0.0013687294 0.0026545054 4289934169
-0.00025081835 0.0014443677 0.0027676506 4289671772
-0.00020135268 0.0012230312 0.0023864023 4291707465
-0.00018875858 0.0011978911 0.0023231825 4292299329
-0.00020041756 0.0012321969 0.0023753194 4291641931
-0.00018717664 0.00120225 0.0023037125 4292299329
-0.00016554219 0.0011036146 0.0022072291 4293154869
-0.00016374022 0.001139359 0.0021832029 4293418291
0.0015251925 0.00090048264 0.0018009653 4294678790
0.0015047565 0.00090507494 0.0017768343 4294678790
0.0014952202 0.00091037399 0.0017655737 4294875144
0.0014858219 0.0009156171 0.001754476 4294677258
0.0016626356 0.00098413357 0.0019560419 4294276892
0.0017200982 0.0010307941 0.002023645 4293157163
0.0018145168 0.0010940469 0.0021347257 4291315777
0.0030073237 0.001835352 0.0035380279 4287243363
-0.0017554972 0.0015124285 0.0028808161 4288949603
-0.0017659466 0.001537197 0.0029279944 4289343584
-0.0016382227 0.0014334449 0.0027303712 4291314249
-0.0013235579 0.0011834989 0.0022409447 4292892976
-0.001684515 0.0015151723 0.002852089 4289015136
-0.0011260423 0.0010116317 0.0019269175 4294146072
-0.0013733769 0.0012404695 0.0023627991 4291643203
-0.0014334552 0.0013031411 0.0024529714 4291971648
-0.0011288844 0.0010317761 0.0019421667 4294213652
-0.0016628054 0.0015459599 0.0028762042 4288949603
-0.0012798358 0.0011755015 0.0022258016 4292959022
-0.0015273688 0.001418271 0.0026854835 4289212255
-0.0010950338 0.0010176672 0.0019044066 4293551909
-0.0012363067 0.0011611721 0.0021857356 4291643203
-0.0011144476 0.0010646399 0.0019923085 4293289509
-0.0015030117 0.0014439045 0.0027020434 4290919505
-0.001548849 0.0014557488 0.0027083699 4289540449
-0.0012686211 0.0011989166 0.0022305425 4291905602
-0.0011721315 0.0011328422 0.0020954306 4293156141
-0.00098347699 0.00095585117 0.0017680485 4294611724
-0.0016741039 0.0016273411 0.0029928114 4288490085
-0.0014669524 0.0014420887 0.0026521173 4290788431
-0.0015965791 0.0015512218 0.0029028712 4289015136
-0.0012427068 0.0012144635 0.002259467 4292564022
-0.0010308216 0.0010248973 0.0018957638 4294277658
-0.0010307275 0.0010190147 0.0018740501 4293884951
-0.0012827887 0.001290161 0.0023591516 4292169528
-0.0015764566 0.001585622 0.0029329425 4289540188
-0.0015618213 0.0015893828 0.002939899 4289015136
-0.0011716343 0.0011921894 0.0021925322 4293288743
-0.00099787186 0.0010332994 0.0018894617 4294543379
-0.0010562791 0.0011002907 0.0020119601 4292432693
-0.0014504428 0.0015290813 0.0027960343 4289671517
-0.0014566033 0.0015543023 0.0028421527 4289015136
-0.0011071387 0.0012483175 0.0023777476 4291708226
-0.0009048545 0.0010402749 0.0019697512 4293815074
-0.0015805565 0.0018312654 0.0034881246 4286915178
-0.0014155469 0.001637027 0.0030814626 4287702123
-0.0010725445 0.0012488532 0.0023507825 4291116873
-0.0010114692 0.0011870714 0.0022477093 4292431931
-0.0016990139 0.002024357 0.0038559181 4285602157
-0.00098693825 0.0011732832 0.0022085332 4292760374
-0.00089787116 0.0010812392 0.0020233716 4293946404
-0.0010607436 0.0012728923 0.0024245568 4291576135
-0.0010500369 0.0012953009 0.0024526408 4290788176
-0.0018440522 0.00228824 0.0043072752 4284355183
-0.0012613235 0.0015171163 0.0028225421 4290591818
-0.00082802528 0.0010100733 0.0018792063 4294343703
-0.0014700535 0.0018141086 0.0033362915 4288096100
-0.0015069454 0.0018755508 0.0034692269 4286849387
-0.0019216135 0.002408979 0.0044559152 4283961454
-0.0014732911 0.0018416138 0.0033675225 4287112041
-0.0013346619 0.0017048601 0.0031174584 4288358752
-0.00076801621 0.00095437298 0.0018070969 4293949719
-0.0011033474 0.0013937019 0.0026546703 4290000216
-0.0016114857 0.0020292783 0.0038198181 4286061675
-0.0011237005 0.0014255902 0.002683464 4290788176
-0.00092745607 0.0011964891 0.0022655416 4293553180
-0.0010494445 0.0013642779 0.0025832481 4290591818
-0.00097528769 0.0012730856 0.0023823823 4290853965
-0.00081524008 0.0010723544 0.002006745 4293816095
-0.0019599106 0.0025219438 0.0046115546 4283895916
-0.0017571265 0.0023070669 0.0042922175 4284486510
-0.0016085046 0.0021446724 0.0039900886 4285733484
-0.00154517 0.0020401073 0.0038629249 4286193005
-0.0014202918 0.0019049946 0.0036070903 4286193005
-0.00089485722 0.0011978403 0.0022547583 4291775038
-0.0011509109 0.0015528162 0.0029229482 4288949596
-0.00070634135 0.00098198676 0.001837636 4294279184
-0.0007718791 0.0010818961 0.002024601 4292893737
-0.001266898 0.0017023941 0.0031672451 4289212506
-0.00079462479 0.0010997608 0.0020342395 4291710516
-0.0016375507 0.0022794704 0.0041921297 4284617839
-0.00073180936 0.0010209921 0.0018885402 4293818134
-0.00068209559 0.00096723391 0.0017891031 4294677257
-0.0015777533 0.0022319439 0.0041047242 4284880240
-0.0014908049 0.0021438021 0.0039426247 4285667950
-0.0012651691 0.001802866 0.0033737842 4287374186
-0.00091136963 0.0013172737 0.0024507418 4290657613
-0.00078036392 0.0011538714 0.0021343287 4293156141
-0.001184471 0.0017174829 0.0031585891 4288424285
-0.00089013315 0.0013313957 0.0024345522 4290460242
-0.0012272078 0.0018302323 0.0033854009 4288687455
-0.0011962017 0.0018152886 0.003357759 4287045994
-0.00071224448 0.0010745068 0.0019648124 4293419563
-0.00075391959 0.0011507194 0.0021162655 4292367158
-0.00071930548 0.0011340402 0.0020736735 4293091369
-0.00087103748 0.0013857415 0.0025339273 4290723147
-0.001119271 0.0018136336 0.0033163587 4287177323
-0.0011055979 0.0018252796 0.0033376541 4287177323
-0.00025486058 0.0014764337 0.0028122547 4289474654
-0.00019899398 0.0012455548 0.0023584471 4291248204
-0.00017386925 0.0011753561 0.0022255264 4292826170
-0.00020088204 0.0012648129 0.0023808242 4291182157
-0.00018500813 0.0012167842 0.0022770232 4292036931
-0.00020706258 0.0013190653 0.002454075 4290985039
-0.00018654195 0.0012412213 0.0022959008 4291774021
-0.0002147468 0.0013839239 0.0025451474 4290656595
-0.00018714217 0.001252413 0.0023032883 4291773510
-0.00016341558 0.0011507181 0.0021788743 4293483825
-0.00016311253 0.0011621767 0.0021748338 4293615154
-0.00016271693 0.0011729178 0.002169559 4293483825
-0.00016114897 0.00116833 0.0021486529 4293483825
0.0014914764 0.00092460529 0.001761153 4294480137
0.0015053343 0.00094430568 0.0017775166 4294677257
0.0015223396 0.00096620823 0.0017975967 4294742792
0.0015415051 0.00098974875 0.0018202275 4294677257
0.0030143578 0.0018618092 0.0035463031 4286586730
0.0029741901 0.0018588689 0.0034990471 4286718060
0.0029300046 0.001852797 0.0034470642 4286849387
0.0028938586 0.0018512184 0.0034045395 4287045994
-0.0018042868 0.001835575 0.0033374091 4288161893
-0.0011387266 0.0011720227 0.0021309503 4293684006
-0.0012526292 0.0013119252 0.0023718423 4291577669
-0.0016672907 0.0017560814 0.0031570001 4287964775
-0.00090257282 0.00095092494 0.0017191864 4294348309
-0.00098692579 0.0010463792 0.0019025076 4294081305
-0.0013518556 0.0014409 0.002590382 4289737817
-0.0010716722 0.0011491425 0.0020658742 4293223215
-0.001349836 0.0014486045 0.0026338263 4290919499
-0.00096927129 0.0010655964 0.001926502 4293751578
-0.00096319569 0.0010577424 0.0018909363 4293422879
-0.0008671229 0.00095811719 0.0017128353 4294283535
-0.0015608972 0.0017236902 0.0030643381 4288161638
-0.0015553923 0.0017389478 0.0030914629 4288358245
-0.0010301021 0.0011395505 0.0020602043 4293155374
-0.0010716127 0.0012004775 0.0021703548 4291905602
-0.0008579545 0.00095983659 0.001715909 4294812171
-0.00087744684 0.00099481246 0.0017884268 4294480137
-0.0011548365 0.0013102953 0.0023688956 4290656595
-0.0013313502 0.0015301883 0.002766442 4289146210
-0.00092218834 0.0010590291 0.0019038727 4294145561
-0.0010867494 0.0012643228 0.0022729398 4292891704
-0.0014353937 0.0016249738 0.0028888425 4290262868
-0.0010747985 0.0012244539 0.002176807 4291710265
-0.00087304023 0.0010073541 0.0017908518 4294018576
-0.0014650025 0.0017331075 0.0030640576 4289015136
-0.0014300742 0.0016652837 0.0030106825 4288555619
-0.0015232258 0.0017974064 0.0032495484 4288292711
-0.001133267 0.0013271152 0.0023858252 4292102977
-0.00089100032 0.0010703963 0.0019135576 4293949208
-0.00092804123 0.0011224283 0.0020065757 4292959022
-0.0011591077 0.0014210978 0.0025405099 4290262868
-0.0012602557 0.0015106377 0.0026707407 4291380800
-0.00090807583 0.0010957448 0.0019372284 4293027106
-0.0014047347 0.001693124 0.0029769212 4288358756
-0.0013712423 0.0016749402 0.00294495 4288686693
-0.00080390944 0.00098315952 0.0017381825 4294546955
-0.00097214757 0.0012068038 0.0021454291 4293419561
-0.0010134849 0.0012547908 0.0022062256 4291841083
-0.00091329665 0.0011384931 0.0020017461 4293091879
-0.0014867886 0.0018481609 0.0033039746 4288096100
-0.0015583723 0.0019644271 0.0035118249 4287242857
-0.0015913133 0.0020149003 0.0036634551 4286783593
-0.00093485124 0.0012078006 0.0021835943 4292760886
-0.0015611321 0.0020283323 0.0036464401 4286389868
-0.0012562714 0.0015703391 0.0027917142 4291642692
-0.00085438415 0.0010967626 0.0019390279 4293355555
-0.0012666266 0.0016209278 0.0028344092 4289934169
-0.0011894009 0.0015328195 0.0026803401 4291380295
-0.0010571034 0.0013666836 0.0024162363 4291971646
-0.0014552369 0.0019086804 0.0033744625 4287767912
-0.00083291373 0.0010887373 0.0019038029 4294146072
-0.00099723716 0.0013247968 0.0023293132 4292497976
-0.0010498938 0.0013586862 0.0024703385 4290723658
-0.0015874956 0.0020969159 0.0037910342 4286127460
-0.00094010477 0.0012304313 0.0022120113 4291643203
-0.0010139949 0.001357076 0.002439687 4291248965
-0.0009582612 0.0013093797 0.0023407906 4290460245
-0.0015960659 0.00219766 0.0039287778 4285798758
-0.0015096266 0.0020091354 0.0035520627 4286652269
-0.0013363267 0.0018085625 0.0032152222 4287899492
-0.0010782273 0.0014429218 0.0025370053 4291313738
-0.0012616708 0.0017136127 0.0030129454 4289015136
-0.00094831269 0.0012931537 0.00229894 4292102977
-0.0010845193 0.0015132828 0.0026902806 4289737306
-0.00083247042 0.0011541068 0.0020181101 4293815074
-0.0009681058 0.0013627952 0.0023830298 4292101954
-0.0008768565 0.0012399299 0.0021921413 4291840068
-0.001340584 0.0019257596 0.0034046578 4287111527
-0.00091025222 0.001304456 0.002293549 4292168260
-0.00082375697 0.0012059802 0.0021088179 4292431931
-0.0010027246 0.0014798276 0.0025876765 4290591568
