# .PCD v0.7 - Point Cloud Data file format
VERSION 0.7
FIELDS x y z rgb
SIZE 4 4 4 4
TYPE F F F U
COUNT 1 1 1 1
WIDTH 1124
HEIGHT 1
VIEWPOINT 0 0 0 1 0 0 0
POINTS 1124
DATA ascii
-3.7186251 -0.37186342 23.799194 4280428070
-3.7966986 -0.38741916 24.794758 4282533960
-3.8709691 -0.40322691 25.806452 4288720305
-3.9166679 -0.41666779 26.666666 4289773250
-3.8534045 -0.41884932 26.806282 4282402892
-3.4765444 -0.3950628 25.283951 4281679941
-1.4276931 -0.24615452 15.753846 4282008911
-1.4000008 -0.25000069 16 4288195773
-1.3457953 -0.24922188 15.950156 4283785839
-1.2953746 -0.24911101 15.943061 4283456873
-1.2448142 -0.24896336 15.933611 4283522666
0.024980007 -0.12490276 7.9937549 4283185714
0.074824147 -0.12470806 7.9812937 4278584067
0.12371542 -0.12371624 7.9178176 4281016092
0.14826207 -0.12355246 7.9073358 4281804324
3.0015435 -0.13399789 8.575841 4281012751
3.5862062 -0.13793141 8.8275862 4281078028
3.6190469 -0.1360548 8.7074833 4278780160
3.6060095 -0.13355631 8.5475798 4282456595
3.5527909 -0.13061769 8.3595095 4282325779
-6.9292932 -0.09899015 7.9191923 4281678160
-6.7938304 -0.097402833 7.7922072 4281612623
-6.6353679 -0.10015675 8.0125198 4282205277
-6.6659651 -0.10099973 8.079958 4282995052
-6.7338257 -0.10241585 8.1932478 4282731880
-6.9577823 -0.10622595 8.4980545 4281876310
-6.5910554 -0.11124171 8.8993149 4282597714
-6.4199448 -0.10881289 8.7050095 4282795864
-6.2900906 -0.10706563 8.5652294 4282927450
-4.9376554 -0.10734059 8.5872259 4281217089
-4.8654041 -0.10634788 8.5078096 4280953916
-4.8457956 -0.10650126 8.5200796 4280822329
-5.568697 -0.22054298 17.643394 4281415745
-5.2513132 -0.21005303 16.804201 4281613125
-5.2900448 -0.2251088 18.008659 4281415487
-2.3768339 -0.12034629 9.6276798 4279374872
-2.2388062 -0.11940327 9.5522385 4282467919
-2.2130845 -0.11962646 9.5700932 4281481021
-2.1233649 -0.11962646 9.5700932 4282007622
-2.1037338 -0.12374932 9.8999214 4283060053
-2.1248975 -0.12685983 10.148762 4281612605
-3.5251689 -0.23501177 18.800896 4280164899
-3.6313839 -0.24619606 19.695637 4279835421
-3.6454797 -0.25141293 20.112986 4279506456
-3.2896082 -0.25304732 20.243736 4279375125
-3.7086847 -0.29087785 23.27017 4279506711
-3.8151743 -0.31144348 24.915417 4280625708
-3.8709691 -0.32258144 25.806452 4281218102
-3.6923089 -0.32820594 26.256411 4281416253
-3.4679813 -0.31527171 25.221674 4281350719
-1.4327314 -0.19761848 15.80944 4281284929
-1.4021918 -0.20031349 16.02504 4287011241
-1.3437023 -0.19906737 15.92535 4285497490
-1.2371143 -0.19793865 15.835052 4282535513
0.025021676 -0.10008886 8.0070896 4283119664
0.17135814 -0.097919457 7.8335371 4280292627
2.9841354 -0.1056334 8.4506512 4281012494
2.9703233 -0.10331587 8.2652493 4280224520
3.5631595 -0.10479909 8.3839064 4282325521
3.5658441 -0.10411251 8.3289804 4282325521
-6.844193 -0.078070797 8.3275347 4282073690
-6.9363961 -0.087802656 9.3655977 4282466127
-6.7205124 -0.085430413 9.1125593 4282663507
-5.0294819 -0.080687039 8.6065998 4281546312
-5.010004 -0.08080668 8.6193619 4281414468
-5.0803661 -0.082384482 8.7876606 4281217089
-5.0967641 -0.083099574 8.8639364 4281085502
-5.0256319 -0.082387567 8.7879896 4280888123
-5.5337405 -0.16275738 17.360752 4281152831
-5.1864467 -0.15405317 16.432304 4281218624
-4.8342547 -0.14502792 15.469613 4281219395
-3.6623385 -0.11688336 12.467533 4281613382
-3.4854898 -0.11243537 11.993082 4280955193
-3.3399148 -0.10891047 11.617093 4278190081
-2.575758 -0.09090928 9.69697 4280164905
-2.5215764 -0.090056464 9.6060038 4280690992
-2.3681219 -0.091081783 9.7153702 4278980113
-2.2556393 -0.090225741 9.6240597 4282665040
-2.1811397 -0.089636043 9.5611582 4281941829
-2.1332417 -0.094113775 10.038782 4281546812
-3.648001 -0.19200039 20.48 4278190080
-3.8268802 -0.23918042 25.512526 4279441176
-3.8762901 -0.24742317 26.391752 4279770398
-3.8333347 -0.25000051 26.666666 4280955445
-1.4769239 -0.14769261 15.753846 4279968040
-1.4327314 -0.1482138 15.80944 4281416774
-1.3978167 -0.1497663 15.975039 4283457133
-1.3348448 -0.14831629 15.820373 4284641922
-1.2072443 -0.14486952 15.452717 4281811531
-1.0707465 -0.13384348 14.276609 4286615969
0.24169137 -0.072507702 7.734139 4279897613
2.9392736 -0.079440005 8.4735832 4278780161
3.561461 -0.079734378 8.5049829 4279108097
3.5545797 -0.078990839 8.4256725 4278780160
3.5649166 -0.078064047 8.3268147 4281865487
3.5932758 -0.078114867 8.3322353 4281668622
6.1045289 -0.083623864 8.9198608 4278911232
8.0849867 -0.092931084 9.9126291 4279108866
-7.9440489 -0.068189338 10.910281 4282598228
-3.6439989 -0.075916715 12.146661 4283391599
-3.5128002 -0.073953763 11.832589 4282996069
-3.4108434 -0.072571203 11.61138 4283061603
-3.2812507 -0.070564598 11.290323 4278914835
-3.158355 -0.068659954 10.98558 4278190081
-3.0118208 -0.066193931 10.591017 4278190081
-2.5935702 -0.060315646 9.6504927 4280954423
-2.4710429 -0.061776131 9.8841696 4279045906
-2.266196 -0.061248597 9.7997646 4279045648
-2.2278745 -0.061037712 9.7660227 4281547071
-2.1983876 -0.061066382 9.7706099 4281547071
-2.1488736 -0.061396442 9.8234196 4281414969
-2.173243 -0.06299261 10.078806 4281481019
-3.8327317 -0.12566344 20.106129 4279045904
-3.7765987 -0.13022766 20.836401 4278914318
-3.500001 -0.12500015 20 4278255874
-3.6837525 -0.14446099 23.113733 4278255874
-3.7747626 -0.15407206 24.651503 4278914318
-3.8016231 -0.15840109 25.344145 4278914576
-3.8535888 -0.16398263 26.23719 4279375641
-1.4860688 -0.099071316 15.851393 4279705124
-1.2395556 -0.095350467 15.256058 4280429107
-1.1787828 -0.094302669 15.088409 4280429364
0.1706792 -0.048765674 7.8024993 4278518274
2.8219626 -0.051779199 8.2846622 4281078029
2.9105175 -0.051513653 8.2421751 4278780160
3.4979534 -0.053814739 8.6103487 4279042561
3.5555551 -0.052287642 8.3660135 4278780160
5.9303937 -0.055684518 8.9095125 4283638042
5.9444442 -0.055555619 8.8888893 4286988596
5.9722214 -0.055555619 8.8888893 4284886045
5.9999995 -0.055555619 8.8888893 4282127888
6.0277772 -0.055555619 8.8888893 4281536780
6.1002774 -0.055710368 8.9136486 4278911232
-8.2318382 -0.035330392 11.305528 4282269262
-7.4354568 -0.051636014 16.523235 4283786370
-7.4317889 -0.051971458 16.630575 4283984007
-7.5431604 -0.053121775 16.998671 4284247436
-7.5577898 -0.053602282 17.15243 4284444815
-7.6130061 -0.054379564 17.401155 4284510609
-3.7958171 -0.038733501 12.394504 4283589752
-3.6502581 -0.037632179 12.042087 4283523958
-3.4676633 -0.036122121 11.558876 4283194736
-3.3327372 -0.035082053 11.226061 4282733157
-3.2312782 -0.034375899 11.000094 4282601310
-3.1191776 -0.033540126 10.732653 4278322182
-3.0162516 -0.032785911 10.491308 4278387718
-2.8906369 -0.031765793 10.164876 4278190081
-2.7178342 -0.030537995 9.771987 4280099114
-2.4307697 -0.030769771 9.8461542 4282402126
-2.4092669 -0.03088857 9.8841696 4283125850
-2.2353609 -0.0314845 10.074863 4282205002
-2.2204981 -0.03172195 10.150846 4281086004
-3.9831326 -0.065298386 20.895117 4279111954
-3.9361763 -0.065604068 20.992935 4278190080
-3.8988447 -0.066083252 21.146271 4278914318
-3.7400692 -0.064485066 20.634859 4278190337
-3.5220134 -0.06289418 20.125786 4278190080
-3.71627 -0.072869293 23.317764 4278190338
-3.7649601 -0.0753005 24.095737 4278914318
-3.827414 -0.078111835 24.99535 4278914575
-3.7675214 -0.078491375 25.1168 4278849039
-1.004385 -0.041850075 13.391789 4281679945
0.14597012 -0.02432886 7.7850986 4280752663
0.17005722 -0.024294384 7.7740664 4278321152
0.19277062 -0.024096807 7.7108436 4278321152
2.8139985 -0.025582258 8.1861792 4281340687
2.8422096 -0.025377322 8.1206007 4281078029
2.8666768 -0.025369272 8.1180248 4281209101
2.8917186 -0.025366401 8.1171064 4281078029
2.9620247 -0.0253169 8.1012659 4281143565
2.9627297 -0.025108324 8.034523 4281078029
3.6038327 -0.026115192 8.3567152 4279108097
5.865921 -0.027933452 8.9385481 4279304704
5.9284286 -0.02783349 8.9065609 4283112726
5.9444442 -0.027778266 8.8888893 4287908669
5.9722214 -0.027778266 8.8888893 4289222470
5.9999995 -0.027778266 8.8888893 4288565568
6.0277772 -0.027778266 8.8888893 4288170554
6.0555549 -0.027778266 8.8888893 4285279517
7.927381 -0.030257713 9.6822987 4279239425
7.7919884 -0.029515628 9.4448357 4279043074
7.8132105 -0.029373489 9.3993521 4279767053
7.8985858 -0.029254537 9.3612881 4287136901
-8.4956417 -4.9985977e-07 11.667833 4281546053
-4.1125255 -5.6948363e-07 13.293009 4283458425
-3.7581267 -5.2571846e-07 12.271433 4283392375
-3.60185 -5.0905157e-07 11.88239 4283392115
-3.2769029 -4.7287665e-07 11.037988 4282931306
-3.1682663 -4.6206353e-07 10.785585 4281613902
-3.0445759 -4.4879886e-07 10.475959 4279375647
-2.9406528 -4.3819131e-07 10.228355 4279375646
-2.6944187 -4.150333e-07 9.6877956 4280099372
-2.4710429 -4.2344612e-07 9.8841696 4283190873
-2.3601534 -4.202013e-07 9.8084288 4282138953
-2.3249383 -4.2496976e-07 9.919735 4279967009
-3.7042398 -8.7554588e-07 20.43718 4278914318
-3.7737858 -1.0144131e-06 23.678648 4278190338
-3.8371944 -1.0520869e-06 24.558037 4278190080
-3.7548904 -1.0724174e-06 25.032595 4278914575
0.14619242 -3.3402804e-07 7.7969542 4280292370
0.36427364 -3.3292395e-07 7.7711816 4279634698
0.44191876 -3.3657227e-07 7.8563418 4280488723
0.46721265 -3.3710828e-07 7.8688531 4280488723
2.6181812 -3.3234107e-07 7.757576 4281537295
2.9866662 -3.4407074e-07 8.031373 4281143565
3.3989816 -3.6403813e-07 8.4974556 4281143565
3.4340851 -3.6494663e-07 8.5186625 4281078028
3.5044181 -3.6122043e-07 8.4316845 4281143820
3.540875 -3.622545e-07 8.455822 4281143820
3.5516572 -3.6066609e-07 8.418745 4281143820
4.6968455 -4.5027545e-07 10.510426 4281274636
5.876657 -3.8181756e-07 8.912467 4280420612
5.9444442 -3.8080748e-07 8.8888893 4285543976
6.0277772 -3.8080748e-07 8.8888893 4285674276
6.0555549 -3.8080748e-07 8.8888893 4286593319
6.095427 -3.8156455e-07 8.9065609 4286329891
6.1941957 -3.8250749e-07 8.9285717 4279239168
8.4635305 -4.4971756e-07 10.497403 4279436033
7.823813 -4.0937863e-07 9.5558033 4279305217
7.6968899 -4.0120608e-07 9.3650379 4279174146
7.7899785 -4.0147879e-07 9.3714037 4279766281
7.9017897 -4.0420218e-07 9.4349737 4279504654
7.8602052 -4.0058032e-07 9.3504314 4280293914
-12.018816 0.046404235 14.849503 4280098864
-12.394624 0.048040703 15.373177 4279835691
-8.8104315 0.037812635 12.100163 4280295211
-11.209877 0.049382228 15.802469 4282203214
-3.2544513 0.034257039 10.962361 4282206813
-3.1346736 0.033347256 10.671227 4282074967
-3.0574079 0.032875024 10.520112 4282338140
-2.9588404 0.032160982 10.291616 4279573541
-2.5263162 0.030074889 9.6240597 4279045650
-2.4895642 0.030360231 9.7153702 4282467408
-0.81439757 0.035408214 11.33074 4280955450
0.050006036 0.02500301 8.0010424 4282659113
0.44191876 0.024550825 7.8563418 4279699978
3.0274808 0.025228763 8.0732841 4281537295
3.0797839 0.025452513 8.1448851 4281997329
3.2635953 0.026319062 8.422183 4281471501
3.3393583 0.026293905 8.4141331 4278780160
3.5459502 0.026462058 8.4679422 4279042561
3.568871 0.026435826 8.459548 4281537549
3.5937238 0.026424183 8.455822 4282325521
3.6052625 0.026315531 8.4210529 4282916629
3.6579647 0.026506733 8.4822388 4281603085
4.2118316 0.029248545 9.3596268 4281602828
3.9684289 0.026280731 8.4099169 4283834647
4.032721 0.026530802 8.4899406 4282127373
4.1744013 0.026253844 8.4013128 4282127118
5.8461533 0.02797175 8.9510489 4279173632
5.8550177 0.027880765 8.9219332 4279173632
5.9444442 0.027777504 8.8888893 4285608737
5.9722214 0.027777504 8.8888893 4286594087
12.144628 0.053500041 17.120182 4279436033
7.4720931 0.032068755 10.262103 4279239168
7.0438066 0.029973354 9.591568 4279239168
7.8014026 0.029328294 9.3851471 4280094474
-9.1452246 0.078499541 12.559964 4280361261
-3.3449709 0.07042022 11.267269 4282272607
-3.2485607 0.06911809 11.058928 4281877847
-3.0322123 0.065917447 10.546824 4278849301
-2.5199244 0.06072088 9.7153702 4283322975
-2.3466671 0.060952198 9.7523813 4279177492
0.44191876 0.049101986 7.8563418 4279699978
2.816437 0.049411032 7.9057894 4280617993
3.5641515 0.053596113 8.5754042 4281537549
3.6208057 0.054041721 8.6467018 4281472013
3.6362462 0.053870164 8.6192522 4278780160
3.6719537 0.053999163 8.6398926 4281275148
3.6782629 0.05369712 8.5915651 4284033309
4.1245489 0.057685833 9.2297611 4279108096
3.9656372 0.054698288 8.7517529 4279304961
3.9183972 0.052245148 8.3592491 4285148449
3.9751084 0.052650291 8.4240723 4284228891
4.8345318 0.057553783 9.2086334 4280617222
4.9074407 0.05807605 9.2921963 4280617222
4.7407398 0.053871892 8.6195288 4280617222
5.9722214 0.055555388 8.8888893 4284163094
5.9999995 0.055555388 8.8888893 4282389772
6.0277772 0.055555388 8.8888893 4279436033
6.0555549 0.055555388 8.8888893 4279239168
6.1863046 0.055732314 8.9171972 4285082396
6.1944442 0.055555388 8.8888893 4285148701
6.9459424 0.058863748 9.4182281 4279173632
7.5966597 0.061511233 9.8418274 4279436033
7.8728848 0.061506733 9.8411074 4281144330
7.5315766 0.057274178 9.1638966 4283116314
7.8824053 0.058823746 9.411828 4285286970
7.8576317 0.058420885 9.3473701 4285222207
24.09803 0.15958914 25.53434 4287730325
23.205687 0.1531724 24.50766 4287861911
-9.1101294 0.11729772 12.511765 4280163624
-8.6319265 0.14713499 15.694411 4280230192
-8.6496019 0.14827879 15.816416 4280033069
-4.5981236 0.14075877 15.014279 4279244834
-4.4559121 0.13781159 14.699913 4279178783
-4.1339688 0.12918641 13.779894 4279112990
-2.5325887 0.089385405 9.5344505 4282139472
-2.5027938 0.089385405 9.5344505 4282598994
-2.4592035 0.09108153 9.7153702 4282664528
-2.4380958 0.091428503 9.7523813 4282862934
3.0664277 0.077959985 8.3157377 4280224262
3.7060697 0.076677263 8.1789141 4282259726
3.6799953 0.0756163 8.0657444 4281931020
3.8221219 0.077475399 8.2640486 4283112722
3.8662009 0.077842928 8.3032522 4284032281
3.9246044 0.078492045 8.3724909 4283375380
4.2333369 0.079375029 8.4666758 4278845696
4.4255567 0.08195471 8.7418423 4281733387
4.5400376 0.083558932 8.9129591 4281930508
4.7293439 0.085470028 9.1168098 4281930251
4.7988496 0.086206831 9.1954021 4282192654
4.9237971 0.087924898 9.3786631 4281995788
4.9779081 0.088365175 9.4256258 4281076744
4.9603987 0.087536402 9.3372231 4282061325
4.7164807 0.079491198 8.4790678 4280617222
5.2322841 0.083493844 8.9060163 4282784016
5.3191676 0.084431179 9.0059996 4284294168
5.2973967 0.083643064 8.9219332 4284294168
5.2931132 0.083137855 8.8680449 4284557338
5.3591151 0.082872868 8.8397789 4283309330
5.459609 0.083565392 8.9136486 4283965717
5.5153193 0.083565392 8.9136486 4282849551
5.5586591 0.083798826 8.9385481 4286330404
5.5710292 0.083565392 8.9136486 4283046670
5.6703906 0.083798826 8.9385481 4283834643
5.6983237 0.083798826 8.9385481 4285279516
5.7262564 0.083798826 8.9385481 4284228886
5.9444442 0.083333276 8.8888893 4281076997
6.0098906 0.083085991 8.8625126 4278976768
6.0615678 0.083416022 8.8977156 4279239168
6.075798 0.083230056 8.8778791 4279239168
6.1371126 0.083309174 8.8863182 4281930250
6.1760626 0.083085991 8.8625126 4284557594
6.2424512 0.083604202 8.9177885 4285805858
6.9262137 0.091134332 9.7210026 4285215006
8.0182524 0.093235426 9.9451199 4286993721
7.9057837 0.091572732 9.767765 4286599734
7.7079482 0.088937812 9.4867067 4286402356
7.5385027 0.086649403 9.24261 4285876784
7.8096681 0.087421604 9.3249779 4284299816
7.810884 0.087110177 9.2917595 4285483320
7.8510098 0.087233394 9.3049021 4284497968
7.5867853 0.083986498 8.9585667 4282723619
7.2692299 0.079881594 8.52071 4279701004
7.1853132 0.078671269 8.3916082 4279635726
22.444441 0.22222205 23.703703 4286544764
21.7069 0.21421269 22.849371 4286808196
-8.9439573 0.15354365 12.283545 4280032295
-4.964726 0.20264095 16.211348 4279244834
-4.8383579 0.19951899 15.96159 4279178784
-4.5785065 0.19077024 15.261686 4279244577
-3.1731408 0.13796201 11.037009 4281219401
-2.524771 0.11743067 9.394495 4281744713
-2.4729984 0.11918011 9.5344505 4278979857
-2.4360905 0.12030022 9.6240597 4281546559
-2.4196603 0.12098246 9.6786394 4281809988
-2.3816798 0.12213687 9.7709923 4279967010
-2.3556409 0.1223704 9.7896748 4279638044
0.097784095 0.097784139 7.8227654 4279503882
3.4658873 0.10664225 8.5314169 4279962117
3.7350986 0.1059598 8.4768209 4279830787
3.7033405 0.10431902 8.3455582 4281537547
4.7663093 0.11485035 9.1880684 4282718225
4.73245 0.10516512 8.4132462 4282717968
4.9615903 0.1084496 8.6760063 4281864715
5.0473886 0.10972538 8.7780685 4281930250
5.4679322 0.11332454 9.0660028 4282783758
5.3640547 0.11059859 8.8479261 4283703316
5.5255809 0.11162742 8.930233 4280551941
5.5944047 0.11188762 8.9510489 4280420612
5.8662019 0.11120715 8.8966112 4282718477
5.9807854 0.1117899 8.9432316 4281011205
6.2070765 0.11183874 8.9471388 4283375121
6.2644558 0.11186481 8.9492235 4281799435
7.169003 0.12467779 9.974267 4286332198
7.2245374 0.12509969 10.008018 4286332198
7.2638612 0.12523845 10.01912 4286661419
7.0383391 0.12082934 9.6663895 4286267176
6.8975854 0.11790695 9.4325972 4286267175
7.5912504 0.12599532 10.07967 4284230169
7.4606719 0.12331637 9.8653526 4286791977
7.486135 0.12322804 9.8582859 4283770131
7.4498386 0.12212799 9.7702818 4279304960
7.2777691 0.11738287 9.3906708 4279174145
8.0089283 0.12662283 10.12987 4286203692
8.0405836 0.12662283 10.12987 4286335279
8.1776848 0.12827687 10.262195 4286926642
8.0279799 0.12494858 9.9959297 4287387962
22.852522 0.30168217 24.13468 4283847507
22.101435 0.29080713 23.264671 4284965988
21.326815 0.27969474 22.375677 4283255371
-9.9408274 0.27613336 17.672583 4281348934
-9.8627825 0.27549595 17.631788 4281283141
-7.5231791 0.26489994 16.953642 4281680986
-7.4210534 0.26315719 16.842106 4281878366
-7.368422 0.26315719 16.842106 4282009953
-7.2679749 0.26143721 16.732027 4281944159
-7.2156873 0.26143721 16.732027 4281944159
-7.1400657 0.26058561 16.677525 4281615193
-7.0649357 0.25973955 16.623377 4280693317
-6.960259 0.25778663 16.49839 4280232249
-5.9154935 0.28168938 18.02817 4281615448
-5.9322643 0.2852042 18.253119 4282076257
-5.9068108 0.28673759 18.351255 4281944930
-5.7872353 0.28368717 18.156029 4282142566
-5.6794763 0.28116137 17.994377 4281747550
-5.5572104 0.27785972 17.783072 4281417811
-3.2679729 0.1776067 11.36686 4281153608
-3.0511155 0.16764322 10.729196 4280429368
-2.8410378 0.15783498 10.101466 4281613387
-2.4908428 0.14651975 9.3772898 4279045907
-2.4480877 0.14571908 9.3260469 4278914321
-2.4456725 0.14732924 9.4290972 4278980114
-2.4134083 0.14897539 9.5344505 4282402126
0.097933725 0.12241741 7.8347359 4279635467
0.16865727 0.1204695 7.7100687 4279503625
3.6539485 0.1384068 8.8580589 4279765252
3.6967504 0.12835905 8.2150021 4280158724
4.7659569 0.13539615 8.6653776 4280617478
5.3138676 0.13838162 8.8564472 4282586894
5.4543476 0.14130397 9.043479 4283374866
5.7599988 0.13913004 8.9043474 4282062090
5.7878251 0.13913004 8.9043474 4283440657
5.8156514 0.13913004 8.9043474 4283309585
5.8333325 0.13888851 8.8888893 4282849806
5.8662019 0.13900916 8.8966112 4282061833
5.9145589 0.13949394 8.9276371 4282718221
6.8794484 0.15020591 9.613205 4284295193
6.9739809 0.15160789 9.7029314 4282324748
7.0410023 0.15240225 9.7537708 4281734154
6.8170424 0.14321481 9.1657724 4285675298
7.2186995 0.1491463 9.5453892 4286857770
7.3885951 0.1501743 9.6111822 4286989870
7.4285703 0.14739189 9.4331064 4286071079
7.9554982 0.15477583 9.9056797 4286860849
7.5579605 0.14100635 9.0244312 4279174146
7.5728917 0.14075971 9.008646 4279108610
7.6271176 0.14124255 9.0395479 4279108610
-10.445596 0.34818596 18.569948 4281283141
-10.297173 0.34515604 18.408352 4281217348
-7.7037044 0.32323179 17.239058 4281088332
-7.7278919 0.3265301 17.414967 4281351762
-7.6216221 0.32432377 17.297297 4281680986
-7.542088 0.32323179 17.239058 4282075746
-7.4133344 0.31999949 17.066668 4282075746
-7.3355484 0.31893635 17.009966 4281944159
-7.234324 0.31683117 16.89769 4281615193
-7.1344266 0.31475356 16.786884 4281022280
-7.0054059 0.31135085 16.605406 4280561471
-5.9786482 0.34163645 18.22064 4281088847
-5.9963975 0.34594539 18.450451 4281879136
-5.9927278 0.34909031 18.618181 4281747550
-5.8705049 0.34532318 18.417267 4281747550
-5.7604575 0.34220478 18.250952 4281944930
-5.6594248 0.33956489 18.110157 4281944930
-5.5746469 0.3378568 18.019058 4281549914
-5.3693104 0.3287327 17.53244 4280430400
-5.2102666 0.32228395 17.188505 4280034867
-2.8620107 0.19080037 10.176037 4280626232
-2.4073398 0.17614649 9.394495 4281414973
-2.3880601 0.17910418 9.5522385 4282072645
0.14455712 0.14455734 7.7097378 4278518273
3.8011072 0.16526529 8.8141632 4279765252
4.5920491 0.16903223 9.0150671 4280551942
5.7599988 0.16695625 8.9043474 4282521613
5.7878251 0.16695625 8.9043474 4282849806
5.8156514 0.16695625 8.9043474 4282193163
5.9145589 0.16739292 8.9276371 4281930249
6.3413949 0.16835536 8.9789677 4279173632
6.8776331 0.17786956 9.486392 4279108096
6.7231898 0.17165565 9.1549835 4279501825
6.7279148 0.16961104 9.0459366 4282653198
7.262064 0.17640615 9.4083433 4285478689
7.1044412 0.17188138 9.1670218 4285610787
7.7523518 0.18028697 9.6153212 4279239681
7.5990973 0.17536353 9.3527365 4285085217
7.4973059 0.1723516 9.1921005 4285348131
7.4326234 0.17021249 9.0780144 4285348388
7.4398861 0.16973098 9.0523338 4284296989
7.606225 0.17028835 9.0820608 4279239682
31.407751 0.63025492 33.613651 4279570191
28.042843 0.56085598 29.912369 4279504911
-6.0649829 0.4043318 18.483755 4281549914
-3.1811056 0.24470019 11.186304 4280560698
-2.8899086 0.22477044 10.275229 4281284422
-2.7458878 0.21596847 9.8728533 4279046166
-2.642442 0.21019405 9.6088791 4278387718
-2.5704794 0.20681995 9.4546347 4278190081
-2.4995461 0.20345122 9.3006353 4278190081
-2.4281847 0.20234852 9.250226 4281678661
-2.4139841 0.20607159 9.4204235 4279177492
0.074073598 0.17283936 7.9012346 4283777593
0.097337931 0.17034206 7.7870722 4280753175
6.192101 0.19974506 9.1312103 4280748549
7.179142 0.20345731 9.3009138 4283244561
7.0790925 0.19981293 9.1343136 4283244818
7.5601864 0.20122153 9.1987066 4279304961
-7.9723191 0.44290644 17.716263 4281548629
-8.1423492 0.45551586 18.22064 4280429372
-6.9236407 0.42281759 16.912708 4278980633
-6.9183989 0.42574745 17.029903 4278914839
-6.0388017 0.45149902 18.059965 4278717974
-6.1064224 0.46972463 18.78899 4278783767
-2.7962389 0.25134721 10.053891 4278190082
-2.710222 0.24638371 9.8553514 4278190082
-2.6352994 0.24232626 9.6930532 4278321925
-2.5668242 0.23877423 9.550972 4280428078
-2.5242529 0.23757665 9.5030689 4282007626
-1.4953279 0.39875379 15.950156 4279639333
-1.3396373 0.38275319 15.310132 4281220427
-1.1624758 0.35768452 14.307385 4279376417
-1.052601 0.33683199 13.473284 4279573539
-0.91795158 0.30598354 12.239346 4279639590
-0.80917794 0.28145289 11.258119 4279968554
-0.74048257 0.2692661 10.770647 4280165934
0.050319254 0.2012789 8.051158 4283382834
0.073760569 0.19669606 7.8678446 4283908922
0.1202228 0.19235718 7.6942892 4282133285
3.8481207 0.26311937 10.524777 4278714880
3.7884712 0.25256473 10.102592 4279896838
3.3118479 0.21195826 8.4783325 4278714880
3.4008625 0.21255389 8.5021582 4280159239
3.4826531 0.21597846 8.6391411 4280159239
3.5502858 0.21847911 8.7391672 4279962373
3.7314165 0.22614644 9.0458603 4278714880
3.8045986 0.22884801 9.153923 4278714880
3.8341892 0.22721119 9.0884504 4279962373
3.9417388 0.21306695 8.5226803 4280290053
5.0445933 0.21814457 8.7257853 4279108096
5.2318335 0.22145322 8.8581314 4279042816
5.4817381 0.22260863 8.9043474 4279108352
6.4393659 0.22495599 8.9982424 4279108096
6.5823679 0.22796077 9.118433 4279304961
7.0536418 0.22938669 9.1754704 4279239425
7.722343 0.23138101 9.2552433 4279174145
-8.0842113 0.5052622 17.964912 4280890439
-8.2843981 0.52139461 18.538511 4281285199
-8.1726627 0.51798463 18.417267 4281548629
-8.0475636 0.51367319 18.263971 4281416785
-7.9809976 0.51306307 18.242279 4281943389
-7.8467751 0.50806355 18.064516 4282206558
-7.5847754 0.49826893 17.716263 4282074716
-7.54318 0.49918002 17.748657 4281943129
-7.2972975 0.48648551 17.297297 4281877336
-7.1434932 0.47978586 17.059086 4281614163
-7.0525856 0.47724167 16.968626 4280955973
-6.6278324 0.46601853 16.56958 4280955716
-6.4713383 0.45859784 16.305733 4280955973
-6.391305 0.45652086 16.231884 4280626750
-5.8322587 0.46451521 16.516129 4280693317
-5.7252402 0.46006301 16.357828 4280495679
-5.6832008 0.46079913 16.384001 4280693317
-5.7235775 0.46829176 16.650406 4281023054
-6.1313872 0.52554637 18.686131 4281220690
-6.1289139 0.53038567 18.858194 4282471789
-5.7245088 0.51520473 18.318426 4282208359
-5.5287967 0.50261682 17.870855 4281879136
-5.3963532 0.49558243 17.620743 4281878366
-5.2560973 0.48767808 17.339699 4281548883
-5.0639448 0.47474384 16.879814 4280890437
-2.817704 0.28817368 10.246195 4278190082
-2.7411273 0.28356427 10.082305 4280559923
-2.6721911 0.27964732 9.9430351 4282468178
-2.581212 0.27655786 9.8331871 4281612609
-1.3390654 0.4304128 15.303596 4283590779
-1.2618234 0.42060673 14.954935 4283392886
-1.0524727 0.37888917 13.471642 4279573539
-0.74050194 0.30293179 10.770929 4279705125
0.050213974 0.22596462 8.0343132 4283975485
0.073675662 0.22102797 7.8587875 4282923571
0.096969232 0.2181814 7.757576 4283448887
0.12004241 0.21607675 7.6827435 4281345055
0.14351261 0.21526919 7.6540308 4278715395
3.3736579 0.24290295 8.6365662 4279108609
3.4171765 0.24216169 8.6102104 4281013516
3.4420164 0.24201635 8.6050425 4281210381
3.5122855 0.24504273 8.7126474 4281473294
3.5755699 0.24753903 8.801405 4281144845
3.6568351 0.2512325 8.9327288 4281998866
3.7508554 0.25573972 9.0929852 4279371266
3.8560929 0.25707242 9.1403704 4281670415
3.8829398 0.25695881 9.1363306 4281276172
3.8921597 0.25568888 9.0911779 4282195986
3.8552222 0.25142711 8.9396477 4283049495
3.8049607 0.24636394 8.7596235 4282524179
3.7628348 0.23848912 8.4796295 4282063887
3.7705991 0.23731002 8.437706 4282654995
3.7968333 0.23730165 8.4374084 4283443224
4.2302847 0.24249998 8.6222382 4282325520
4.2686028 0.24314784 8.6452732 4282982421
4.641571 0.25786459 9.1685371 4278780160
4.7088375 0.25841135 9.1879768 4278780160
4.7004952 0.25639018 9.1161137 4278780160
4.7903619 0.25510758 9.070509 4281209354
4.7839189 0.25326586 9.0050259 4279305217
4.812664 0.25329766 9.0061569 4279108353
4.8401027 0.24891913 8.8504753 4279108353
4.8559241 0.24552381 8.7297525 4281733644
5.2034774 0.25043428 8.9043474 4282851861
5.2771921 0.2526311 8.9824562 4283180566
5.7242575 0.25130841 8.9354277 4281603082
5.7421594 0.25087059 8.9198608 4279567874
5.7499995 0.24999952 8.8888893 4279042816
5.9737062 0.25240967 8.9745836 4279370496
6.3275256 0.25087059 8.9198608 4279304961
6.6014576 0.25609058 9.1054602 4280421125
6.6364903 0.24990924 8.8856792 4279108096
7.1287527 0.26187208 9.3110256 4279174145
7.8202233 0.26966238 9.5880146 4279304961
7.7918205 0.26765746 9.5167284 4279304961
7.792592 0.26666614 9.4814816 4279239681
7.7861476 0.26245394 9.3317137 4279108610
7.8366652 0.26317111 9.357213 4280225289
28.353521 0.8339256 29.650745 4279305990
-8.1451817 0.56563675 18.100401 4281021510
-8.4309254 0.58957434 18.866405 4281087303
-8.2518167 0.58111304 18.595642 4281021510
-8.0475636 0.57074833 18.263971 4280889923
-7.6343365 0.56134742 17.963142 4281613906
-7.3972607 0.54794443 17.534246 4281482319
-7.1840701 0.53612387 17.155987 4281284940
-7.060163 0.53083855 16.986856 4280692544
-6.4878569 0.50686306 16.219641 4280626750
-6.3330369 0.4986636 15.957257 4280955716
-6.3197503 0.50156671 16.050158 4280560700
-6.2111807 0.49689373 15.900621 4280824130
-6.2090554 0.5007295 16.023367 4280824130
-6.2186646 0.50558174 16.178638 4281218889
-6.196826 0.50793582 16.253969 4281811543
-6.1853046 0.51118141 16.357828 4282008922
-5.9803286 0.52458942 16.786884 4281746520
-5.8892512 0.52117193 16.677525 4281615193
-5.7435904 0.51281983 16.410257 4281548883
-5.7014456 0.51364297 16.436598 4281417556
-5.7235775 0.52032447 16.650406 4281154124
-6.1313872 0.5839408 18.686131 4280891467
-6.1515722 0.59149641 18.927912 4281483863
-6.1838655 0.6003744 19.212008 4282010723
-5.7041001 0.57040918 18.253119 4281747550
-5.490469 0.55459195 17.746967 4281812313
-5.3870831 0.54970151 17.590473 4281549142
-5.263567 0.54263496 17.364342 4281351503
-5.0879078 0.5299896 16.95969 4281022280
-4.7712059 0.50223142 16.071428 4280363834
-2.9630198 0.33670631 10.774616 4278190339
-2.8807251 0.33111733 10.595769 4278914579
-2.8121076 0.32698876 10.463655 4280428078
-2.7549241 0.32410824 10.371478 4280230698
-1.4953279 0.4984417 15.950156 4279376160
-1.3448076 0.48028752 15.369222 4283656572
-1.2732283 0.47156507 15.090103 4282866284
-0.9428578 0.3928566 12.571428 4284247680
0.073732242 0.24577539 7.8648233 4283120949
0.097116373 0.24279179 7.7693477 4283251765
0.12027445 0.24054952 7.6975951 4282068005
0.14387108 0.23978558 7.6731491 4278321152
3.4560802 0.2764861 8.8475676 4279108866
3.6695743 0.28011984 8.9638472 4280225543
3.7351875 0.28296843 9.0550022 4279897093
3.8319995 0.27371392 8.7588577 4280553223
3.9019663 0.27096957 8.6710377 4282852372
4.0020008 0.2741093 8.7715101 4278977280
4.2206764 0.28518051 9.1257887 4278714880
4.2167563 0.28111675 8.9957485 4278714880
4.3380275 0.28168976 9.0140848 4278780160
4.8411102 0.28816098 9.2211637 4282589461
4.8031259 0.28420827 9.094677 4281998096
4.8342481 0.28106061 8.9939518 4280749831
4.9783983 0.27968496 8.9499311 4282325520
4.9698009 0.27609971 8.8352032 4279108096
4.9944267 0.27593485 8.8299274 4279108096
5.0074306 0.27513319 8.8042746 4279173889
5.1078591 0.27760068 8.883234 4280290310
5.3016958 0.28503707 9.1211987 4285414952
5.3191104 0.28444406 9.1022224 4285349929
5.4107642 0.28328574 9.065156 4285022248
5.4817381 0.27826047 8.9043474 4281144843
5.7635798 0.2797851 8.9531355 4283443991
5.7983179 0.28011164 8.9635849 4281604108
5.8271365 0.27880999 8.9219322 4285151778
5.8550172 0.27880999 8.9219322 4285874471
5.8880286 0.27905315 8.9297132 4285808165
5.92489 0.2794756 8.9432316 4282785551
6.0228667 0.28144202 9.0061569 4279239680
6.133728 0.28528935 9.1292715 4279304960
6.5800796 0.29909417 9.5710268 4281471753
6.3863316 0.28510374 9.123332 4283639060
6.386323 0.28383625 9.0827723 4279239681
6.3776793 0.28219786 9.030344 4279174145
6.3306766 0.27888408 8.9243031 4281997581
6.4911022 0.28469712 9.1103201 4286333482
6.5757341 0.28714964 9.1888008 4285479715
6.6246614 0.28802842 9.2169218 4284429086
6.7160487 0.28218657 9.0299826 4279174145
6.6712241 0.27913037 8.9321842 4279174145
6.8950901 0.28729507 9.1934547 4279174145
7.1736341 0.2952109 9.4467621 4283969307
7.0083599 0.2825948 9.043046 4281669644
7.8953257 0.29906499 9.5700932 4286335795
7.8957157 0.29795116 9.5344505 4287452988
7.8482599 0.29504699 9.4415169 4286532918
7.8799801 0.29512995 9.4441719 4283444511
30.058287 0.98229569 31.433506 4279305476
-8.3121958 0.64390188 18.731709 4278849046
-8.08216 0.63052249 18.342489 4278914839
-6.7564473 0.56733465 16.504297 4278256132
-6.7096777 0.56774139 16.516129 4278387720
-5.9827929 0.58239514 16.942421 4278783509
-5.7840381 0.56807458 16.525822 4278783509
-5.7812505 0.57291609 16.666666 4278849303
-5.3975906 0.60585141 17.624784 4278849302
-5.3168035 0.60293579 17.539967 4278849302
-3.8027396 0.4863964 14.149727 4280230698
-3.7097657 0.4800868 13.966175 4280428078
-1.3529301 0.53150743 15.462049 4282668905
-1.2853508 0.5236606 15.233777 4283392886
0.025599511 0.28159973 8.1920004 4284172866
0.074073598 0.27160469 7.9012346 4283120949
0.09756051 0.26829243 7.8048782 4279372809
0.12066318 0.26545978 7.7224736 4284302908
0.14415912 0.26429233 7.6885118 4278518273
0.16770604 0.26353857 7.6665835 4278583809
3.1353025 0.41057503 11.944013 4278977281
4.6666656 0.59689867 17.364342 4280159238
3.9205351 0.47917622 13.939685 4280028166
13.367512 1.3871937 40.354763 4278846465
4.3537536 0.43145272 12.551364 4280817163
4.2693763 0.41931346 12.198221 4280882955
3.6524153 0.30669114 8.9219322 4279174658
3.7140744 0.30950597 9.0038185 4279897350
3.9928164 0.30500656 8.8729267 4280356614
4.2637463 0.31477296 9.1570406 4280225030
4.329535 0.31332135 9.1148119 4281932816
4.4242897 0.31808594 9.253418 4282589460
4.422976 0.31592661 9.1906013 4281407244
4.4125252 0.31314668 9.1097307 4279239938
4.5032902 0.31154814 9.0632277 4279043074
4.8984771 0.32656491 9.5000792 4281276944
4.856184 0.31056967 9.0347624 4284430373
4.9133177 0.31240723 9.0882187 4284101151
5.1204953 0.31822261 9.2573938 4284429345
5.140131 0.31764829 9.2406864 4285019939
5.1596956 0.317076 9.2240381 4284165917
5.5255537 0.31822535 9.2574739 4284761389
5.9366417 0.30803305 8.9609699 4285875497
6.0341883 0.3101683 9.0230865 4284625949
6.1412373 0.31420258 9.1404476 4281144071
6.2678103 0.31919378 9.2856464 4280356100
6.4390197 0.32640165 9.4953299 4281340937
6.3348832 0.30697647 8.930233 4288043065
6.8702559 0.32574463 9.4762163 4286532912
7.2046523 0.32613623 9.4876089 4286796597
7.1812696 0.32374552 9.4180603 4286533425
7.156517 0.32131276 9.3472891 4286665268
7.0034389 0.31316164 9.1101656 4287256633
7.029315 0.31304616 9.1068058 4287979583
7.0112171 0.31098115 9.0467329 4287979583
8.1788912 0.35006899 10.183835 4288702533
8.1182566 0.34612694 10.069157 4288768584
8.1676617 0.34688884 10.091321 4288768584
8.0855188 0.34207937 9.9514093 4288702022
7.9848762 0.3327029 9.6786394 4287453501
7.9849329 0.33144978 9.6421843 4287650112
7.9170856 0.327398 9.5243149 4287978821
7.9940109 0.32934099 9.5808382 4286664508
8.0809813 0.33168179 9.6489344 4284890672
32.126812 1.1624825 33.817703 4279174404
31.839266 1.1483004 33.405136 4279239683
-2.012682 0.40935868 10.916238 4278321923
-1.980016 0.40965813 10.924223 4278321666
-2.0748909 0.44461915 11.856517 4278387459
0.025681693 0.30818602 8.2182989 4283779137
0.074533686 0.29813647 7.9503107 4283120949
0.19296436 0.28944707 7.7185931 4278583809
0.25428098 0.30513763 8.1370077 4281014802
0.30254331 0.33004767 8.8012762 4283906605
0.34269759 0.34269798 9.1386175 4283840812
0.38126382 0.35193616 9.3849697 4284168749
0.4147557 0.35550523 9.4801445 4281277203
0.4515799 0.3612642 9.6337175 4281408790
0.48241144 0.36180884 9.648241 4281211668
0.54203206 0.36135489 9.6361361 4278386688
1.7851233 0.44628078 11.900827 4278649344
2.8072908 0.43749976 11.666667 4278649344
2.8235288 0.43438891 11.583711 4278649344
2.9321258 0.43438891 11.583711 4279962630
3.0740731 0.44444418 11.851851 4278649344
3.0844548 0.44063628 11.750307 4278714880
4.2026434 0.57308763 15.282345 4278649344
11.066908 1.2647891 33.72773 4278846465
7.7908134 0.87373573 23.299633 4279043330
4.1566253 0.43373471 11.566265 4281474576
4.2061105 0.43139583 11.503895 4278977794
4.1975045 0.352238 9.3930187 4279174658
4.2065172 0.35054296 9.3478174 4280160006
4.4756598 0.36535987 9.7429352 4282656535
4.6065493 0.37350386 9.9601088 4282328084
5.083035 0.37652096 10.040565 4281934615
5.0907187 0.37477669 9.994051 4282525979
4.8556972 0.34275496 9.1401377 4284103722
5.2828774 0.35816103 9.5509663 4284693799
5.3177991 0.348708 9.2988853 4284694570
5.3540244 0.34917536 9.311348 4284563756
6.0110373 0.34024724 9.0732651 4283643168
6.054719 0.34111077 9.0962925 4283840288
6.853826 0.37555194 10.014724 4286533425
6.7728767 0.36445957 9.7189274 4287255348
6.6747551 0.35757598 9.5353651 4288044604
6.6970763 0.35717729 9.5247326 4288438847
6.7066016 0.35610262 9.4960747 4288175933
6.3407817 0.33519536 8.9385481 4288241728
7.0415425 0.36421758 9.7124739 4288439619
7.0290298 0.36200997 9.6536045 4288571204
6.8115339 0.34782287 9.2752819 4288045376
6.7857866 0.34503984 9.2010679 4288045889
6.8009081 0.34434962 9.182662 4288045889
6.8985496 0.34782588 9.275362 4287388988
7.1953878 0.35387141 9.4365759 4286403639
7.1339421 0.34941742 9.3178034 4286666552
7.9957347 0.38379511 10.234542 4285877810
8.1757183 0.37879762 10.101275 4288571976
8.1170721 0.37463394 9.9902439 4287979583
8.0610676 0.36641201 9.7709923 4287321916
8.0608349 0.36501878 9.73384 4287452990
7.9871302 0.36032149 9.6085787 4287584578
8.1113911 0.36455673 9.7215185 4285021741
33.384296 1.3221498 35.257347 4279174148
31.447039 1.2413299 33.10215 4279174147
30.768612 1.2105678 32.281826 4279304962
-1.249143 0.62457091 15.374057 4280035121
0.14562744 0.31552708 7.7668219 4278583809
0.25994009 0.33792269 8.318099 4282854689
0.30781451 0.36378136 8.9546204 4282920482
0.34778807 0.37677094 9.2743635 4283709225
0.38726243 0.38726294 9.5326281 4284037933
0.45691842 0.39599642 9.7476063 4281146131
0.52095002 0.39837393 9.8061295 4279897610
0.57879949 0.39602107 9.7482128 4280686096
0.61696595 0.40102816 9.8714647 4281211669
2.1480868 0.63466221 15.622458 4279700488
1.5359519 0.44371957 10.92233 4281211924
1.7353621 0.47999385 11.815236 4282197274
1.6285335 0.44106123 10.856894 4283577383
1.6624612 0.44106123 10.856894 4283380003
1.5576315 0.4049843 9.9688463 4282722845
1.7189518 0.43816426 10.785584 4284037161
2.7956421 0.47199157 11.618257 4282263064
2.8057547 0.46762583 11.510792 4282985758
2.8673825 0.46594971 11.469534 4281539857
3.0184042 0.47852752 11.779141 4284102436
3.0458705 0.4770641 11.743119 4284299556
3.0607281 0.47368413 11.65992 4284233764
3.0895705 0.47252262 11.631329 4282327572
3.5767415 0.53445566 13.155834 4282853657
3.7651701 0.55621839 13.691532 4283773728
3.9505813 0.57705122 14.204341 4282854426
4.9480152 0.70685935 17.399618 4280094471
8.0833607 1.0104201 24.871883 4283643940
6.550725 0.79588246 19.590958 4281737748
6.0689487 0.73052162 17.982075 4280949261
4.2205997 0.48989102 12.058859 4283775267
4.1531386 0.47779468 11.761103 4285221167
4.120481 0.46987942 11.566265 4286733373
4.1494837 0.4690721 11.546392 4286535995
4.1858358 0.46910232 11.547136 4285418545
4.2061105 0.46734563 11.503895 4284563497
4.2048988 0.46325156 11.403118 4283577632
4.4710112 0.41516533 10.219457 4284694826
4.3846335 0.39583492 9.7436314 4283314717
5.0993538 0.43612894 10.735484 4282657307
5.1091695 0.4341124 10.685846 4282657307
5.1333323 0.43333325 10.666667 4282460186
5.45544 0.39182717 9.6449785 4283775015
5.4357324 0.38826656 9.557333 4284498735
5.4382977 0.38632712 9.509593 4284170286
5.6145887 0.39241749 9.6595097 4282987557
6.1446085 0.37679201 9.2748823 4284367403
6.8855538 0.39783198 9.7927895 4286861620
6.91643 0.39784771 9.7931767 4287387449
7.1767097 0.40214318 9.8989115 4286993721
7.146677 0.3987416 9.8151798 4287126075
6.8811264 0.37744573 9.2909737 4286994746
7.2516751 0.37860149 9.3194237 4286601018
8.1596212 0.40955624 10.081387 4288504642
8.124999 0.40624991 10 4287912508
8.1230755 0.39999992 9.8461542 4286400818
8.138195 0.39923215 9.8272552 4287255099
8.058424 0.39383274 9.6943464 4284101155
31.193178 1.3295451 32.727272 4279370498
-1.2643288 0.68079108 15.560959 4279969328
-0.026756361 0.37458143 8.5618725 4283910723
0.075709291 0.35331184 8.0757093 4281739811
0.35170627 0.41032413 9.378849 4283906860
0.39188671 0.42203194 9.6464567 4284169774
0.52524072 0.43255115 9.8868961 4279897609
0.58397305 0.43029585 9.8353462 4281211925
0.62222159 0.43555501 9.9555559 4281342997
1.8668398 0.59399402 13.577024 4279832074
1.4406977 0.44821671 10.244967 4281146131
1.7158074 0.52220184 11.936057 4280817424
1.6005744 0.47676644 10.897532 4282460445
1.5078528 0.43979004 10.052357 4283511847
1.5392663 0.43979004 10.052357 4283774759
1.5583252 0.43633068 9.9732857 4283380260
1.5930382 0.4373042 9.9955378 4284366381
2.78793 0.5068959 11.586206 4283117599
2.794029 0.5014919 11.462687 4283643428
2.8486636 0.49851564 11.394658 4282065685
2.9895825 0.51041603 11.666667 4284497449
3.0181808 0.50909024 11.636364 4284365862
3.0361438 0.50602347 11.566265 4284628776
3.0658803 0.50496805 11.542142 4282525719
3.2910216 0.52958912 12.10491 4284168740
3.4536021 0.54943615 12.558557 4284760618
3.5831242 0.5573743 12.740001 4280817420
3.986825 0.61335707 14.019608 4281211663
13.251164 1.8187853 41.572289 4285418803
9.2238779 1.2537297 28.656715 4285353011
7.6639075 1.0316787 23.581259 4285287987
7.2237797 0.96316963 22.015335 4284630573
4.1876073 0.52345037 11.964595 4284366888
4.1359468 0.51241767 11.712419 4286075959
4.1134014 0.50515401 11.546392 4287062080
4.1441431 0.50450385 11.531531 4286864702
4.1670399 0.50291806 11.495285 4287390787
4.1910434 0.50149184 11.462686 4285484338
4.2493668 0.49992496 11.426871 4282197782
4.2491293 0.49573123 11.331015 4282197782
4.1935873 0.48520792 11.090481 4282460697
4.6859584 0.45557877 10.413242 4285812789
4.7739081 0.46092856 10.535523 4285155633
4.8914838 0.46904585 10.721062 4284564268
5.1677461 0.48232242 11.024527 4285944892
5.2367969 0.48553032 11.09785 4286273599
5.2349315 0.4821642 11.02091 4286602566
5.2461419 0.48003858 10.972324 4287522895
5.2778449 0.47980353 10.966952 4287062858
5.2888122 0.47769865 10.91884 4286339909
5.2945447 0.47515091 10.860606 4284366896
5.436892 0.47572753 10.873786 4285814852
5.3358817 0.4639892 10.605481 4286340681
5.3471756 0.4621011 10.562325 4287261009
5.3973503 0.46357554 10.596026 4287722330
5.2536998 0.42515442 9.7178278 4288247131
5.3797665 0.43285426 9.8938246 4287261009
5.5435076 0.44348013 10.136702 4287588946
5.6256232 0.44749227 10.228408 4287326031
5.7819018 0.45475581 10.394432 4280620815
5.7776318 0.45188129 10.328729 4281015058
5.7331352 0.44591004 10.192243 4281015315
5.5562387 0.42506698 9.7158289 4280884243
5.5694284 0.42376035 9.6859636 4280949779
5.5999994 0.42378327 9.6864872 4281015572
5.7006283 0.42907906 9.8075342 4282461729
5.7538452 0.4307687 9.8461542 4287721819
5.874999 0.43749943 10 4287788382
5.9031749 0.43727171 9.9947948 4288643175
5.9143953 0.4357971 9.9610891 4289366640
6.6586766 0.43158042 9.8647079 4288773725
6.8587794 0.44250137 10.11433 4288575061
7.0532231 0.45295876 10.353356 4288968532
7.1547103 0.45737821 10.454372 4288311118
7.2500348 0.4572089 10.450502 4282984984
7.1494808 0.4488458 10.259346 4283509786
7.1044765 0.41790989 9.5522385 4281276942
7.0811057 0.41479233 9.4809799 4280422921
7.1724124 0.41839024 9.5632181 4281211406
7.2229047 0.41958734 9.59058 4282986012
7.2509351 0.41947511 9.5880146 4283906083
7.2537303 0.41790989 9.5522385 4285418032
7.1333246 0.40761808 9.3169966 4287785031
7.0620794 0.40190649 9.1864462 4288639567
7.1052828 0.40272811 9.2052259 4289231447
7.1364627 0.40286434 9.2083397 4289888861
7.3866148 0.41531122 9.4928398 4291269483
8.2221012 0.45860273 10.482362 4291596905
8.2758627 0.45976961 10.509033 4291268454
8.3722019 0.46328336 10.589348 4290938720
8.3348074 0.4593983 10.500546 4290477400
8.166954 0.44662976 10.208694 4285284392
8.1769905 0.43362778 9.9115047 4283574810
8.2079639 0.43362778 9.9115047 4286465841
8.1234016 0.42754695 9.7725143 4284757799
8.2796803 0.43414 9.923213 4281670162
-0.053963408 0.40472135 8.6340637 4283910723
0.026186079 0.3927983 8.3797054 4281017119
0.59541065 0.47006109 10.02798 4281277460
0.62499934 0.46874955 10 4281343510
0.6844691 0.4889065 10.430016 4278846466
1.1829207 0.80653679 17.206135 4279634953
1.2919475 0.84257442 17.974937 4279700746
1.6702812 0.56941378 12.147506 4280686353
1.4512575 0.48375231 10.320059 4281277717
1.5731649 0.51298833 10.943761 4280883474
1.5147922 0.47337234 10.098619 4283380518
1.6983305 0.47175822 10.064185 4281277715
1.7868186 0.4873139 10.39604 4280883472
2.6564093 0.53846097 11.487179 4281606678
2.7006166 0.54012299 11.522635 4280883727
2.7422674 0.54123664 11.546392 4281277714
2.7824473 0.54203486 11.563421 4283183392
2.7857137 0.53571379 11.428572 4283972135
2.8214278 0.53571379 11.428572 4282591770
2.8426387 0.53299445 11.370559 4281671699
2.9750559 0.54421717 11.609978 4284366377
3.004524 0.54298592 11.583711 4284563497
3.055198 0.53915226 11.501925 4282788890
3.1272719 0.54545403 11.636364 4282591769
3.1598055 0.54479367 11.622276 4284431911
3.2512307 0.5541867 11.82266 4284760618
3.3803849 0.56972736 12.154196 4281474576
3.5324552 0.5887422 12.559845 4281211663
3.7541642 0.61881787 13.20146 4281803540
12.873569 2.0326674 43.363613 4282132247
15.543558 2.4286792 51.811874 4282263833
5.3773632 0.75383538 16.081837 4282592796
5.0466614 0.70092469 14.953074 4282198296
4.8022261 0.66085631 14.098282 4282263575
4.3243232 0.58968002 12.579852 4283643938
4.1081071 0.54054004 11.531531 4286865730
4.1255593 0.53811604 11.47982 4286799679
4.1521244 0.53691226 11.454139 4287259971
4.2690573 0.53811604 11.47982 4282329367
4.2857132 0.53571379 11.428572 4282789404
4.2661958 0.52886689 11.282504 4282987039
4.7417622 0.50088996 10.685663 4283775782
4.8163595 0.50170374 10.703023 4286141754
4.9044132 0.50735271 10.823535 4286667839
5.0158134 0.51532292 10.993566 4285287476
5.2833428 0.5283339 11.271133 4284959542
5.3586397 0.53231478 11.356059 4287655508
5.3647046 0.52941126 11.294117 4288115801
5.3835316 0.5277968 11.259676 4287918682
5.422534 0.5281685 11.267606 4287787353
5.4411411 0.52656168 11.233326 4286538060
5.5684443 0.52204126 11.13689 4286604366
5.5115194 0.51349527 10.954576 4287853660
5.5021091 0.50632864 10.801688 4288577124
5.4742694 0.50069493 10.681502 4288577124
5.545877 0.47809243 10.199315 4288181597
5.7584944 0.49358487 10.52982 4288050268
5.8630013 0.49968725 10.660005 4287458389
6.2523289 0.52688122 11.240144 4280555279
5.679409 0.46552497 9.9312086 4280621329
5.6782813 0.46290296 9.8752728 4280884244
5.6970019 0.46191874 9.8542757 4280950037
5.8666658 0.47058779 10.039216 4288643435
6.0039911 0.47904146 10.219561 4289564022
6.8432651 0.47522637 10.138172 4288774754
7.0538635 0.48759383 10.402012 4288905054
7.2587171 0.49945259 10.654999 4289166940
7.3652549 0.5044691 10.762017 4288179789
7.4377007 0.50711554 10.818476 4284694566
7.4610386 0.50640494 10.803315 4279174658
7.4969087 0.50654745 10.806356 4280159749
7.4200821 0.49910825 10.647653 4280290565
7.6126227 0.50526214 10.778936 4279436802
7.491056 0.48643181 10.377222 4280159750
7.4240313 0.48000163 10.240045 4280159750
7.1788883 0.45435965 9.6930151 4280882955
7.2258058 0.45540753 9.7153702 4280554250
7.2342029 0.45402911 9.6859636 4282065684
7.2727265 0.45454502 9.69697 4283380511
7.3168869 0.45540753 9.7153702 4284497704
8.14291 0.48857424 10.422927 4292254579
8.2646017 0.49390012 10.536546 4291991661
8.3114061 0.49472615 10.554168 4291793257
8.4326286 0.49798951 10.623786 4283444764
8.3333321 0.49019563 10.457517 4282261521
8.2558441 0.48374045 10.319806 4280487687
8.257185 0.48193648 10.281322 4279371266
8.3571701 0.48400563 10.325463 4279502338
8.2597399 0.46753207 9.9740267 4281932304
33.772499 1.6719046 35.667332 4281078801
-1.8780015 0.6009599 12.019206 4278387459
-1.9163423 0.62574381 12.514884 4279045390
-1.9967474 0.66558176 13.311645 4278255873
3.1071422 0.57142824 11.428572 4284432681
3.1922603 0.58041078 11.608223 4284826924
3.3117738 0.59537482 11.907504 4281803539
3.4644659 0.61590481 12.318105 4282000918
3.6622143 0.64390558 12.878119 4282198040
4.2979674 0.5778777 11.557562 4282987038
4.3353896 0.57805169 11.561042 4283250209
4.9339199 0.54821301 10.964268 4285945404
5.021883 0.55413854 11.082778 4286931525
5.1270895 0.56187254 11.237458 4285550904
5.3827739 0.5741623 11.483253 4285420863
5.4638147 0.57894695 11.578947 4287853660
5.4774761 0.57657617 11.531531 4288051294
5.5035963 0.57553923 11.510792 4288051294
5.5495481 0.57657617 11.531531 4287853660
5.5755386 0.57553923 11.510792 4286736210
5.6491609 0.57206666 11.44134 4280556050
5.6888881 0.56888855 11.377778 4287131481
5.9544291 0.54440475 10.888102 4288181597
6.2025208 0.5638653 11.277313 4285814852
6.381115 0.57682365 11.536481 4281015829
5.8036528 0.5046652 10.09331 4280950037
5.8202238 0.50337046 10.067416 4280950037
5.9277239 0.50991148 10.198236 4284172088
6.0080309 0.51405585 10.281124 4288643435
6.1639333 0.52458984 10.491803 4289695607
6.2060466 0.5253793 10.507593 4289762427
6.9152994 0.51462668 10.292541 4289037668
7.0527434 0.52242517 10.44851 4288906339
7.4765439 0.54873687 10.974745 4289035610
7.5885663 0.55441546 11.088317 4287982411
7.6644282 0.55741268 11.148261 4284234529
7.688149 0.55660778 11.132163 4280094214
7.7420154 0.5579828 11.159663 4280225029
7.267128 0.49268639 9.853734 4280422921
7.4876552 0.48307425 9.6614914 4291992947
9.8266888 0.582322 11.646447 4279305219
-9.1650496 0.88025862 16.56958 4279506721
-8.8380966 0.86349177 16.253969 4278980118
-8.8717957 0.87179458 16.410257 4279045655
-4.8222632 0.59838271 11.26368 4278914581
-5.6774201 0.73118258 13.763442 4278717201
-6.2552509 0.87883645 16.54281 4278321927
-2.0673528 0.76402104 14.381578 4278387460
-2.1556489 0.85223264 16.042032 4280427818
-0.080944858 0.45868444 8.6340637 4283515966
